50.927 50.936 50.944 50.942 50.959 50.962 50.981 50.987 50.992 51.021 51.057 51.057 51.076 51.066 51.077 51.079 51.081 51.113 51.118 51.119 51.14 51.133 51.143 51.162 51.148 51.128 51.146 51.143 51.154 51.147 51.161 51.157 51.166 51.192 51.203 51.229 51.249 51.258 51.277 51.264 51.272 51.248 51.236 51.214 51.176 51.161 51.141 51.139 51.143 51.152 51.185 51.239 51.217 51.21 51.223 51.218 51.254 51.242 51.238 51.204 51.194 51.177 51.193 51.223 51.245 51.254 51.372 51.517 51.707 51.709 51.647 51.656 51.674 51.677 51.715 51.739 51.765 51.816 51.875 51.895 51.912 51.951 51.988 52.005 52.061 52.143 52.232 52.31 52.386 52.446 52.516 52.579 52.653 52.735 52.86 52.964 53.075 53.21 53.288 53.399 53.425 53.471 53.482 53.513 53.491 53.477 53.379 53.31 53.38 53.486 53.576 53.57 53.518 53.484 53.517 53.502 53.721 53.552 53.481 53.462 53.467 53.482 53.455 53.48 53.479 53.49 53.499 53.513 53.519 53.523 53.548 53.562 53.559 53.554 53.549 53.548 53.554 53.563 53.576 53.68 53.606 53.622 53.623 53.644 53.651 53.666 53.622 53.581 53.564 53.641 53.629 53.604 53.583 53.525 53.691 53.789 53.658 53.702 53.677 53.621 53.72 53.508 53.782 53.901 53.45 53.155 53.08 53.197 52.927 52.89 52.878 53.133 53.062 52.877 52.399 52.336 51.988 51.579 51.39 51.146 50.751 50.381 49.957 49.702 49.738 49.116 48.972 48.892 48.878 48.857 48.744 48.709 48.649 48.602 48.581 48.497 48.41 48.301 48.174 48.06 48.047 48.052 48.026 47.979 47.974 47.926 47.88 47.809 48.05 47.863 47.427 47.509 47.518 47.663 47.617 47.593 47.686 47.639 47.616 47.597 47.612 47.634 48.15 47.629 47.485 47.368 47.374 47.286 47.233 47.207 47.166 47.061 46.985 46.953 46.967 46.962 46.893 46.934 46.929 46.83 45.299 45.059 44.535 43.932 43.734 43.48 43.053 43.161 42.75 42.868 42.15 42.115 44.006 45.481 45.344 45.377 45.292 45.553 44.693 43.847 43.898 44.397 44.01 41.67 41.669 40.687 40.605 40.439 40.415 40.494 40.535 40.563 40.737 42.761 42.909 43.306 44.964 45.485 45.675 45.902 45.693 45.876 46.006 46.049 45.876 45.764 45.742 45.684 46.032 45.942 45.712 46.775 47.302 47.459 47.344 47.265 47.418 48.294 48.21 47.679 44.497 44.506 44.771 44.979 45.196 45.39 45.454 45.53 45.528 46.609 47.104 47.28 46.947 46.783 46.773 46.821 46.472 46.741 46.552 46.545 46.646 46.79 46.922 47.025 47.09 47.386 47.234 47.24 47.255 47.308 47.412 47.362 47.341 47.341 47.333 47.334 47.335 47.34 47.322 47.335 47.314 47.366 47.255 47.277 47.293 47.292 47.244 47.246 47.206 47.22 47.32 47.247 47.234 47.209 47.252 47.252 47.276 47.34 47.449 47.493 47.639 47.797 47.888 48.058 48.18 48.305 48.614 48.71 48.765 48.97 49.151 49.322 49.485 49.645 49.867 50.016 50.085 50.244 50.367 50.513 50.623 50.733 50.941 51.045 51.116 51.237 51.436 51.553 51.689 51.788 51.93 52.031 52.132 52.339 52.402 52.365 52.305 52.328 52.335 52.421 52.307 52.305 52.34 52.292 52.298 52.333 52.263 52.253 52.277 52.262 52.244 52.211 52.13 52.159 52.165 52.127
50.941 50.968 50.984 50.954 50.977 50.987 50.995 51.018 51.02 51.057 51.056 51.094 51.052 51.078 51.068 51.101 51.092 51.107 51.119 51.143 51.171 51.169 51.168 51.18 51.157 51.158 51.149 51.151 51.15 51.165 51.164 51.155 51.18 51.193 51.217 51.251 51.262 51.274 51.281 51.287 51.271 51.271 51.238 51.224 51.196 51.149 51.15 51.157 51.182 51.182 51.211 51.223 51.245 51.236 51.253 51.257 51.268 51.28 51.268 51.197 51.191 51.175 51.19 51.199 51.224 51.239 51.269 51.423 51.606 51.819 51.702 51.73 51.733 51.76 51.764 51.764 51.793 51.845 51.903 51.934 51.936 51.963 52.025 52.044 52.073 52.12 52.217 52.318 52.399 52.491 52.579 52.611 52.66 52.736 52.886 52.894 52.933 53.005 53.11 53.184 53.256 53.317 53.387 53.459 53.501 53.451 53.269 53.289 53.402 53.473 53.515 53.476 53.456 53.47 53.807 53.71 53.517 53.479 53.487 53.477 53.476 53.441 53.464 53.469 53.473 53.485 53.501 53.492 53.51 53.537 53.545 53.529 53.545 53.534 53.539 53.549 53.537 53.61 53.551 53.594 53.613 53.614 53.628 53.651 53.64 53.613 53.569 53.59 53.605 53.633 53.658 53.635 53.62 53.47 53.531 53.824 53.588 53.607 53.646 53.601 53.704 53.693 53.517 53.514 53.475 53.125 53.369 53.468 53.244 52.908 53.121 53.044 53.091 52.868 52.372 52.142 51.843 51.591 51.361 51.173 51.051 50.384 49.914 49.685 49.455 49.244 49.057 48.915 49.057 49.038 48.843 48.693 48.657 48.582 48.506 48.444 48.31 48.158 48.039 47.98 47.961 47.953 47.924 47.907 47.893 47.886 47.697 47.58 47.823 47.894 47.502 47.598 47.954 47.959 47.652 47.823 47.881 47.631 47.634 47.578 47.542 47.547 47.57 47.513 47.385 47.323 47.319 47.255 47.269 47.21 47.167 47.013 46.991 46.994 46.937 46.916 46.897 46.994 46.817 45.364 45.03 44.562 43.74 43.802 43.522 43.471 43.515 42.676 42.76 42.675 42.342 43.157 45.433 45.775 45.563 45.449 45.338 45.529 44.984 43.988 43.822 43.788 43.307 41.675 41.641 40.644 40.52 40.536 40.438 40.472 40.588 40.666 40.839 42.561 43.683 43.863 44.733 45.23 45.659 45.688 45.655 45.359 45.919 45.845 45.78 45.472 45.67 45.581 46.343 46.168 45.785 46.085 47.909 47.583 47.436 47.412 47.823 48.292 44.138 44.348 44.627 44.76 45.043 45.155 45.307 45.493 45.549 45.553 46.583 47.07 47.371 47.527 46.705 46.451 46.186 46.437 46.391 46.815 46.617 46.936 46.702 46.903 47.022 47.171 47.151 47.233 47.247 47.266 47.318 47.383 47.384 47.348 47.344 47.336 47.335 47.346 47.357 47.355 47.341 47.352 47.328 47.3 47.36 47.276 47.302 47.254 47.231 47.239 47.249 47.25 47.218 47.283 47.247 47.276 47.263 47.255 47.302 47.409 47.518 47.613 47.719 47.9 47.975 48.159 48.317 48.416 48.623 48.713 48.902 49.066 49.341 49.403 49.597 49.781 49.943 50.058 50.237 50.393 50.477 50.66 50.707 50.826 50.971 51.102 51.249 51.38 51.49 51.666 51.783 51.892 52.004 52.152 52.213 52.288 52.351 52.397 52.359 52.346 52.35 52.461 52.402 52.365 52.325 52.359 52.361 52.339 52.364 52.305 52.286 52.277 52.272 52.217 52.161 52.205 52.206 52.201
50.979 50.993 51.001 50.986 51.023 51.014 51.013 51.04 51.035 51.061 51.058 51.051 51.076 51.069 51.086 51.088 51.102 51.133 51.128 51.133 51.156 51.173 51.202 51.213 51.196 51.175 51.175 51.167 51.177 51.168 51.181 51.181 51.194 51.212 51.227 51.246 51.265 51.282 51.284 51.296 51.295 51.235 51.239 51.221 51.178 51.154 51.172 51.2 51.189 51.213 51.218 51.28 51.281 51.273 51.283 51.3 51.305 51.299 51.297 51.233 51.194 51.193 51.188 51.19 51.205 51.207 51.255 51.297 51.494 51.736 51.744 51.752 51.766 51.825 51.823 51.864 51.83 51.873 51.901 51.929 51.98 51.988 52.026 52.067 52.107 52.169 52.218 52.286 52.371 52.457 52.591 52.652 52.674 52.713 52.786 52.864 52.901 52.943 53.019 53.121 53.178 53.258 53.327 53.372 53.416 53.336 53.223 53.219 53.295 53.327 53.377 53.379 53.385 53.415 53.96 53.993 53.455 53.442 53.453 53.452 53.456 53.464 53.455 53.463 53.445 53.467 53.5 53.477 53.483 53.49 53.511 53.516 53.521 53.514 53.531 53.559 53.576 53.522 53.554 53.574 53.611 53.64 53.649 53.651 53.615 53.605 53.585 53.816 53.768 53.777 53.635 53.881 53.593 53.54 53.455 53.488 53.512 53.797 53.898 53.501 53.452 53.383 53.458 53.332 53.282 53.172 53.426 53.709 53.482 53.123 53.036 52.939 52.903 52.724 52.272 52.082 51.85 51.664 51.485 51.165 50.896 50.419 50.219 49.834 49.628 49.424 49.27 48.954 48.921 48.763 48.68 48.698 48.658 48.571 48.472 48.383 48.241 48.086 47.952 47.918 47.892 47.868 47.834 47.823 47.836 47.663 47.493 47.49 47.549 47.813 47.677 47.883 47.735 47.684 47.655 47.621 47.617 47.612 47.609 47.564 47.536 47.491 47.482 47.438 47.344 47.268 47.222 47.287 47.268 47.186 47.061 47.042 47.03 46.949 46.914 46.699 46.765 46.972 45.057 44.864 44.193 43.834 43.391 43.897 43.333 43.499 43.359 42.702 42.894 42.744 42.927 45.577 45.927 45.795 45.564 45.499 45.435 45.586 45.212 44.354 43.828 43.282 41.707 41.694 40.671 40.737 42.377 42.628 42.655 40.541 40.833 40.911 41.523 41.762 43.717 43.807 44.374 44.779 45.528 45.387 45.571 45.132 45.137 45.366 45.403 45.365 45.531 46.166 46.404 45.974 46.09 46.386 47.259 47.347 47.014 46.806 47.002 45.275 44.342 44.594 45.197 45.191 45.208 45.432 45.411 45.521 45.632 45.689 47.421 47.011 47.189 46.947 46.317 46.123 46.274 46.34 46.532 46.582 46.7 46.878 46.818 46.886 47.024 47.157 47.191 47.269 47.298 47.322 47.368 47.388 47.349 47.341 47.345 47.34 47.341 47.355 47.354 47.36 47.33 47.331 47.356 47.324 47.44 47.305 47.307 47.229 47.279 47.341 47.278 47.218 47.227 47.266 47.266 47.254 47.304 47.326 47.373 47.475 47.553 47.672 47.787 47.989 48.093 48.256 48.383 48.513 48.682 48.826 48.953 49.186 49.315 49.519 49.659 49.915 50.017 50.166 50.338 50.464 50.613 50.709 50.856 50.951 51.086 51.274 51.344 51.486 51.587 51.777 51.885 52.027 52.12 52.193 52.258 52.375 52.447 52.386 52.374 52.35 52.35 52.362 52.362 52.341 52.353 52.526 52.458 52.316 52.376 52.339 52.34 52.325 52.277 52.197 52.279 52.249 52.253 52.225
51.011 51.01 51.018 51.02 51.017 51.037 51.05 51.041 51.053 51.08 51.067 51.097 51.118 51.108 51.117 51.113 51.12 51.131 51.155 51.174 51.187 51.2 51.205 51.228 51.214 51.219 51.207 51.21 51.189 51.192 51.204 51.208 51.212 51.223 51.236 51.249 51.259 51.271 51.285 51.284 51.275 51.241 51.243 51.238 51.219 51.189 51.201 51.201 51.19 51.217 51.246 51.301 51.328 51.314 51.315 51.314 51.33 51.328 51.33 51.297 51.209 51.207 51.196 51.201 51.201 51.223 51.246 51.268 51.382 51.644 51.807 51.965 51.803 51.969 51.878 51.935 51.901 51.923 51.918 51.938 51.98 52.028 52.064 52.101 52.155 52.201 52.254 52.336 52.351 52.443 52.54 52.649 52.715 52.737 52.834 52.863 52.935 52.941 52.981 53.056 53.101 53.212 53.344 53.203 53.217 53.246 53.237 53.205 53.209 53.23 53.258 53.301 53.315 53.391 53.451 53.443 53.425 53.428 53.42 53.422 53.43 53.426 53.435 53.439 53.456 53.46 53.472 53.467 53.498 53.488 53.495 53.501 53.496 53.494 53.483 53.502 53.534 53.547 53.583 53.566 53.603 53.633 53.643 53.643 53.639 53.566 53.713 53.996 53.871 53.736 53.611 53.858 53.507 53.443 53.412 53.403 53.451 53.548 53.794 53.466 53.421 53.4 53.337 53.496 53.442 53.245 53.388 53.52 53.333 53.08 52.973 52.79 52.874 52.692 52.299 52.203 51.969 51.837 51.519 51.443 50.714 50.515 50.47 50.07 49.757 49.642 49.362 49.133 48.965 48.753 48.666 48.69 48.672 48.566 48.466 48.344 48.183 48.01 47.895 47.853 47.842 47.781 47.746 47.71 47.642 47.589 47.538 47.666 47.986 47.727 47.708 47.683 47.654 47.632 47.593 47.584 47.608 47.6 47.54 47.443 47.424 47.465 47.439 47.325 47.332 47.33 47.25 47.184 47.183 47.095 47.074 47.087 47.071 46.955 46.863 45.259 44.951 44.915 44.673 44.22 43.764 43.343 43.072 43.08 43.012 42.747 42.519 42.227 42.237 42.353 42.286 45.509 45.847 45.813 45.611 45.449 45.297 45.616 45.741 44.228 44.113 43.288 42.172 41.598 40.766 42.206 42.628 42.704 42.861 42.256 42.081 41.344 41.309 44.441 43.8 43.847 45.066 45.003 45.516 45.837 45.515 45.023 45.134 44.993 45.012 45.208 46.281 46.579 46.289 46.379 46.357 46.37 46.898 46.634 46.465 45.974 45.087 45.096 44.651 45.001 45.124 45.285 45.396 45.365 45.489 45.588 46.561 46.92 46.142 46.309 46.464 46.391 46.148 46.291 46.463 46.454 46.703 46.781 46.786 46.85 46.939 46.971 47.104 47.199 47.259 47.356 47.393 47.412 47.397 47.371 47.371 47.372 47.368 47.346 47.358 47.386 47.359 47.358 47.332 47.344 47.362 47.311 47.338 47.268 47.266 47.249 47.259 47.303 47.32 47.287 47.387 47.33 47.25 47.256 47.292 47.398 47.481 47.532 47.606 47.763 47.955 48.054 48.159 48.322 48.488 48.574 48.714 48.95 49.134 49.287 49.427 49.614 49.736 49.901 50.018 50.224 50.414 50.562 50.715 50.838 50.951 51.074 51.193 51.297 51.42 51.583 51.773 51.84 51.971 52.098 52.179 52.255 52.302 52.418 52.357 52.363 52.372 52.389 52.377 52.377 52.367 52.371 52.38 52.404 52.731 52.41 52.351 52.347 52.403 52.331 52.3 52.232 52.283 52.296 52.313 52.274
51.018 51.05 51.05 51.064 51.045 51.065 51.059 51.066 51.075 51.093 51.102 51.113 51.116 51.108 51.128 51.124 51.131 51.121 51.148 51.177 51.2 51.221 51.236 51.229 51.218 51.217 51.239 51.238 51.214 51.209 51.207 51.207 51.208 51.225 51.26 51.261 51.286 51.277 51.3 51.305 51.304 51.281 51.273 51.249 51.237 51.219 51.223 51.226 51.211 51.225 51.262 51.331 51.359 51.345 51.35 51.329 51.345 51.355 51.36 51.367 51.269 51.212 51.22 51.23 51.207 51.232 51.245 51.255 51.334 51.496 51.932 52.263 51.808 51.88 51.906 52.038 52.015 51.981 52.006 51.975 52.008 52.046 52.104 52.135 52.19 52.254 52.305 52.366 52.437 52.452 52.524 52.59 52.687 52.758 52.797 52.849 52.894 52.926 52.985 53.007 53.04 53.102 53.174 53.153 53.153 53.19 53.216 53.222 53.258 53.302 53.305 53.334 53.368 53.389 53.396 53.397 53.388 53.384 53.417 53.405 53.407 53.42 53.428 53.416 53.434 53.447 53.456 53.443 53.452 53.472 53.481 53.495 53.476 53.466 53.477 53.537 53.561 53.58 53.584 53.597 53.646 53.645 53.669 53.691 53.665 53.595 53.564 53.747 53.812 53.876 53.558 53.429 53.384 53.684 53.534 53.43 53.336 53.386 53.442 53.583 53.417 53.379 53.345 53.374 53.273 53.194 53.169 53.225 53.048 53.125 53.126 52.848 52.707 52.522 52.33 52.265 52.028 51.983 51.629 51.48 50.91 50.847 50.574 50.299 49.885 49.711 49.473 49.093 48.952 48.837 48.676 48.891 48.654 48.583 48.416 48.447 48.108 47.966 47.835 47.79 47.775 47.727 47.685 47.69 47.616 47.655 47.723 47.781 47.95 47.938 47.705 47.674 47.638 47.599 47.533 47.537 47.55 47.597 47.609 47.404 47.388 47.452 47.4 47.285 47.277 47.292 47.23 47.182 47.15 47.096 47.083 47.085 47.021 46.963 45.987 45.13 44.333 44.364 44.459 44.007 43.721 43.323 42.987 43.17 43.016 42.578 42.416 42.126 41.805 41.881 41.75 42.335 45.381 45.431 45.54 45.66 45.511 45.594 45.591 45.422 44.355 44.141 43.353 43.232 43.318 42.563 42.798 42.82 42.855 43.014 44.844 44.691 44.333 44.462 44.486 45.3 45.476 45.848 46.025 46.266 45.735 45.531 45.219 44.99 44.854 44.951 46.707 46.637 46.383 46.447 46.261 46.289 46.278 46.085 46.036 45.868 45.096 45.091 44.919 45.016 45.097 45.229 45.406 45.654 45.75 45.926 46.642 46.227 46.188 45.991 46.066 46.151 46.291 46.6 46.724 46.626 46.712 46.831 46.873 46.979 47.06 47.145 47.247 47.269 47.331 47.427 47.425 47.44 47.432 47.392 47.385 47.381 47.363 47.377 47.398 47.401 47.367 47.378 47.333 47.351 47.455 47.387 47.315 47.247 47.218 47.304 47.304 47.303 47.414 47.372 47.417 47.267 47.281 47.265 47.285 47.424 47.481 47.579 47.693 47.872 47.996 48.121 48.263 48.4 48.552 48.686 48.822 48.99 49.14 49.307 49.471 49.616 49.832 49.947 50.136 50.32 50.484 50.665 50.809 50.932 51.074 51.179 51.255 51.385 51.527 51.629 51.842 51.995 52.072 52.186 52.243 52.308 52.358 52.424 52.375 52.38 52.375 52.466 52.442 52.416 52.421 52.376 52.39 52.379 52.409 52.373 52.34 52.341 52.37 52.382 52.39 52.285 52.317 52.293 52.308 52.232
51.057 51.054 51.082 51.063 51.07 51.077 51.08 51.086 51.086 51.091 51.116 51.118 51.126 51.121 51.12 51.133 51.151 51.161 51.176 51.178 51.216 51.227 51.227 51.236 51.22 51.222 51.255 51.235 51.226 51.221 51.214 51.224 51.233 51.253 51.264 51.276 51.298 51.299 51.312 51.324 51.331 51.304 51.306 51.277 51.271 51.249 51.238 51.254 51.247 51.258 51.278 51.319 51.395 51.37 51.378 51.373 51.382 51.392 51.403 51.421 51.364 51.251 51.233 51.238 51.219 51.227 51.243 51.264 51.296 51.361 51.557 51.906 51.796 51.906 52.01 52.484 52.506 52.043 52.073 52.075 52.062 52.076 52.112 52.171 52.221 52.284 52.34 52.382 52.459 52.486 52.55 52.59 52.653 52.732 52.808 52.842 52.882 52.948 52.98 53.025 53.051 53.101 53.127 53.15 53.168 53.2 53.228 53.239 53.278 53.328 53.346 53.337 53.347 53.369 53.371 53.352 53.384 53.404 53.386 53.387 53.389 53.394 53.402 53.414 53.429 53.438 53.427 53.425 53.452 53.447 53.476 53.477 53.485 53.547 53.549 53.6 53.598 53.592 53.6 53.67 53.68 53.67 53.768 54.003 54.261 53.603 53.582 53.596 53.616 53.53 53.461 53.635 53.757 53.79 53.648 53.572 53.486 53.401 53.357 53.422 53.46 53.35 53.291 53.26 53.214 53.162 53.113 53.073 53.167 53.166 52.964 52.819 52.761 52.669 52.504 52.321 52.127 51.953 51.742 51.591 51.186 51.239 50.939 50.438 50.034 49.798 49.548 49.312 49.086 49.16 49.142 49.248 48.829 48.492 48.404 48.284 48.026 47.871 47.787 47.758 47.736 47.671 47.634 47.648 47.638 47.749 48.072 48.094 48.024 47.74 47.772 47.665 47.591 47.521 47.527 47.484 47.516 47.432 47.376 47.346 47.401 47.373 47.32 47.303 47.298 47.281 47.281 47.221 47.112 47.125 47.171 47.087 47 46.942 45.933 44.716 43.921 44 43.713 43.766 43.516 43.297 42.973 43.215 43.096 42.444 42.244 42.145 42.074 41.733 41.746 41.35 44.823 44.932 45.259 45.271 45.768 45.856 45.686 45.75 45.498 44.288 44.612 44.689 43.82 44.615 44.779 44.525 44.501 45.303 45.053 45.08 44.982 44.552 44.586 45.439 45.916 46.431 46.786 46.846 46.671 45.976 47.494 45.965 46.758 46.743 46.619 46.323 46.543 46.073 46.27 46.451 46.224 46.207 46.306 44.867 44.498 45.023 45.024 45.041 45.124 45.276 45.635 45.678 46.022 46.035 46.04 46.141 46.007 46.159 46.207 46.261 46.471 46.524 46.642 46.672 46.806 46.911 46.937 47.013 47.18 47.307 47.295 47.515 47.417 47.463 47.462 47.469 47.416 47.423 47.411 47.391 47.393 47.393 47.421 47.381 47.367 47.367 47.327 47.336 47.371 47.338 47.263 47.285 47.279 47.324 47.42 47.38 47.343 47.291 47.372 47.278 47.328 47.38 47.358 47.42 47.662 47.681 47.773 47.898 48.036 48.185 48.326 48.462 48.621 48.762 48.925 49.106 49.257 49.397 49.573 49.726 49.857 50.027 50.183 50.386 50.528 50.745 50.896 51.028 51.214 51.238 51.389 51.489 51.585 51.742 51.955 52.141 52.255 52.27 52.296 52.355 52.371 52.385 52.369 52.374 52.384 52.454 52.479 52.401 52.415 52.411 52.391 52.399 52.402 52.406 52.375 52.375 52.357 52.362 52.347 52.326 52.354 52.337 52.298 52.287
51.085 51.086 51.102 51.093 51.097 51.097 51.088 51.108 51.113 51.106 51.125 51.15 51.132 51.126 51.154 51.158 51.175 51.195 51.191 51.199 51.222 51.242 51.237 51.259 51.263 51.251 51.275 51.257 51.253 51.252 51.248 51.252 51.263 51.259 51.282 51.306 51.307 51.326 51.34 51.35 51.332 51.3 51.301 51.292 51.275 51.278 51.263 51.263 51.27 51.27 51.309 51.371 51.429 51.389 51.382 51.382 51.39 51.403 51.431 51.446 51.397 51.276 51.246 51.24 51.235 51.247 51.243 51.272 51.289 51.321 51.442 51.786 51.689 51.825 52.064 52.084 52.178 52.119 52.142 52.169 52.165 52.169 52.171 52.214 52.252 52.332 52.379 52.439 52.483 52.534 52.595 52.636 52.69 52.736 52.769 52.819 52.896 52.931 52.967 53.011 53.043 53.084 53.119 53.153 53.175 53.187 53.22 53.243 53.295 53.304 53.313 53.311 53.316 53.32 53.345 53.357 53.375 53.37 53.373 53.373 53.386 53.385 53.407 53.419 53.42 53.403 53.406 53.431 53.441 53.44 53.475 53.483 53.525 53.61 53.638 53.674 53.624 53.627 53.627 53.645 53.676 53.684 53.797 53.671 53.799 53.675 53.598 53.569 53.496 53.487 53.736 53.723 54.038 53.956 53.854 53.849 53.852 53.798 53.36 53.396 53.381 53.304 53.254 53.208 53.209 53.172 53.094 53.068 53.223 52.994 52.922 52.833 52.841 52.798 52.573 52.371 52.193 51.989 51.767 51.64 51.422 51.247 50.859 50.546 50.363 49.97 49.678 49.401 49.231 49.198 49.218 48.824 48.624 48.372 48.285 48.141 47.929 47.807 47.761 47.745 47.689 47.651 47.641 47.635 47.745 47.918 48.154 47.867 47.761 47.735 47.688 47.621 47.535 47.514 47.427 47.388 47.386 47.341 47.3 47.339 47.336 47.323 47.316 47.288 47.342 47.246 47.275 47.173 47.151 47.15 47.143 47.048 46.985 46.938 45.829 44.259 43.625 43.686 43.586 43.377 43.356 43.099 42.938 42.847 42.874 42.881 42.417 41.761 41.622 41.649 41.59 41.305 41.105 44.79 45.174 45.537 46.07 45.746 45.833 45.73 45.457 44.176 44.583 44.784 44.941 44.86 44.963 45.266 45.336 45.359 45.113 44.912 45.119 44.751 45.236 45.701 46.056 46.602 46.753 47.084 47.05 47.013 47.47 47.462 46.917 46.336 46.202 46.103 46.268 46.194 46.354 46.393 46.658 47.142 44.095 44.361 44.592 44.774 45.131 45.191 45.179 45.323 45.46 45.675 45.977 46.055 46.039 46.148 46.174 46.397 46.373 46.422 46.57 46.628 46.763 46.814 47 46.961 47.089 47.158 47.228 47.268 47.39 47.436 47.478 47.478 47.492 47.479 47.427 47.448 47.419 47.405 47.425 47.435 47.401 47.397 47.422 47.365 47.35 47.366 47.375 47.291 47.294 47.353 47.386 47.365 47.4 47.48 47.357 47.305 47.296 47.307 47.812 48.103 47.496 47.519 47.708 47.716 47.876 47.953 48.067 48.263 48.419 48.618 48.745 48.868 49.029 49.179 49.335 49.493 49.655 49.825 49.956 50.16 50.252 50.434 50.641 50.821 50.973 51.095 51.206 51.35 51.449 51.537 51.708 51.862 52.024 52.153 52.314 52.312 52.377 52.378 52.392 52.395 52.412 52.391 52.382 52.431 52.446 52.473 52.4 52.409 52.406 52.422 52.424 52.417 52.416 52.395 52.385 52.376 52.405 52.399 52.39 52.396 52.363 52.325
51.106 51.125 51.123 51.124 51.126 51.129 51.124 51.124 51.12 51.134 51.14 51.158 51.173 51.154 51.173 51.174 51.181 51.204 51.233 51.216 51.235 51.257 51.274 51.28 51.262 51.279 51.286 51.277 51.282 51.261 51.269 51.261 51.278 51.293 51.312 51.319 51.334 51.348 51.339 51.331 51.335 51.323 51.307 51.307 51.298 51.279 51.279 51.287 51.272 51.311 51.332 51.408 51.447 51.409 51.395 51.39 51.416 51.423 51.436 51.446 51.44 51.335 51.273 51.266 51.257 51.259 51.262 51.269 51.284 51.305 51.386 51.521 51.62 51.66 52.105 52.085 52.068 52.133 52.171 52.222 52.27 52.27 52.305 52.275 52.299 52.344 52.41 52.46 52.536 52.585 52.636 52.652 52.707 52.752 52.802 52.828 52.865 52.913 52.99 53.042 53.078 53.105 53.123 53.164 53.188 53.2 53.235 53.24 53.284 53.292 53.299 53.296 53.316 53.327 53.342 53.356 53.353 53.362 53.363 53.378 53.381 53.369 53.39 53.408 53.393 53.403 53.403 53.407 53.439 53.463 53.497 53.53 53.629 53.673 53.642 53.685 53.889 53.773 53.784 53.639 53.65 53.816 53.804 53.66 53.643 53.567 53.536 53.535 53.52 53.48 53.678 53.479 54.009 54.045 53.884 53.742 53.925 53.831 53.453 53.361 53.331 53.289 53.263 53.222 53.193 53.172 53.097 53.06 53.052 52.972 52.948 52.868 52.825 52.807 52.644 52.506 52.246 52.083 51.983 51.917 51.61 51.448 51.042 50.863 50.596 50.193 49.888 49.543 49.282 49.138 49.076 48.908 48.455 48.273 48.332 47.999 47.856 47.781 47.733 47.716 47.701 47.713 47.644 47.75 47.836 47.842 47.827 47.803 47.786 47.705 47.642 47.557 47.53 47.466 47.429 47.397 47.29 47.291 47.321 47.295 47.33 47.319 47.293 47.323 47.307 47.249 47.241 47.178 47.218 47.17 47.11 47.061 47.025 46.971 46.05 44.522 43.35 43.278 43.169 43.069 43.019 42.98 42.8 42.78 42.972 42.239 41.769 41.637 41.615 41.417 41.479 40.886 40.865 40.819 45.205 45.481 45.667 45.735 45.922 45.842 45.138 44.39 44.732 45.119 45.31 45.175 44.963 45.125 45.226 45.374 45.407 45.508 45.526 45.181 45.408 45.763 46.497 46.576 46.508 46.911 46.75 47.119 47.482 47.387 46.724 46.13 46.172 45.997 46.186 46.148 46.312 46.02 47.34 44.004 44.22 44.482 44.623 44.97 45.288 45.234 45.475 45.438 45.538 45.715 45.956 45.965 46.015 46.198 46.244 46.392 46.421 46.528 46.698 46.73 46.808 46.86 46.987 47.278 47.201 47.289 47.305 47.393 47.433 47.498 47.511 47.509 47.492 47.482 47.454 47.457 47.453 47.441 47.456 47.448 47.412 47.389 47.385 47.351 47.393 47.38 47.352 47.286 47.327 47.336 47.406 47.434 47.571 47.275 47.373 47.328 47.331 47.334 47.77 48.205 47.545 47.531 47.659 47.765 47.924 48.048 48.193 48.338 48.528 48.62 48.797 48.953 49.106 49.232 49.455 49.613 49.755 49.892 50.056 50.199 50.378 50.535 50.717 50.915 51.041 51.166 51.277 51.386 51.488 51.617 51.764 51.928 52.044 52.202 52.342 52.355 52.419 52.391 52.426 52.417 52.414 52.408 52.514 52.442 52.411 52.49 52.407 52.417 52.417 52.408 52.432 52.427 52.426 52.471 52.414 52.396 52.408 52.438 52.412 52.421 52.413 52.385
51.116 51.133 51.136 51.146 51.144 51.154 51.144 51.135 51.147 51.149 51.144 51.157 51.188 51.188 51.197 51.192 51.209 51.225 51.243 51.256 51.276 51.286 51.309 51.313 51.311 51.318 51.294 51.322 51.313 51.318 51.306 51.311 51.323 51.327 51.324 51.313 51.33 51.352 51.364 51.355 51.348 51.33 51.322 51.348 51.311 51.286 51.282 51.287 51.294 51.319 51.331 51.413 51.469 51.421 51.418 51.415 51.425 51.44 51.446 51.471 51.481 51.387 51.294 51.267 51.268 51.282 51.281 51.297 51.31 51.334 51.364 51.419 51.541 51.569 51.693 51.927 52.012 52.131 52.183 52.301 52.315 52.367 52.382 52.395 52.383 52.399 52.438 52.484 52.534 52.594 52.629 52.669 52.73 52.768 52.798 52.849 52.894 52.91 52.971 52.987 53.019 53.059 53.085 53.11 53.149 53.171 53.195 53.209 53.241 53.273 53.305 53.321 53.339 53.34 53.342 53.345 53.351 53.363 53.366 53.366 53.373 53.374 53.391 53.382 53.369 53.37 53.384 53.426 53.468 53.506 53.584 53.638 53.668 53.721 53.665 53.661 54.213 53.699 53.709 53.71 53.659 53.684 53.735 53.651 53.587 53.577 53.539 53.56 53.576 53.754 53.539 53.64 53.879 53.979 53.952 53.762 53.755 53.795 53.391 53.362 53.317 53.354 53.28 53.206 53.188 53.155 53.104 53.074 53.076 53.007 52.958 52.888 52.809 52.734 52.688 52.603 52.402 52.334 52.164 52.307 51.825 51.539 51.332 50.984 50.645 50.395 50.055 49.725 49.624 49.153 48.987 48.698 48.402 48.205 48.222 47.916 47.84 47.813 47.723 47.936 47.954 48.09 47.686 47.932 47.873 47.846 47.829 47.843 47.751 47.69 47.586 47.445 47.419 47.344 47.335 47.26 47.268 47.244 47.279 47.303 47.297 47.307 47.296 47.279 47.224 47.231 47.185 47.219 47.209 47.151 47.089 47.014 47.017 46.994 46.852 45.314 43.276 42.749 42.867 42.838 42.692 42.543 42.802 42.46 41.919 41.711 41.562 41.477 41.444 41.279 41.306 40.781 40.819 40.863 45.281 45.604 45.719 45.702 45.946 45.571 45.391 44.72 45.183 45.246 45.572 45.049 45.006 45.265 45.379 45.473 45.569 45.681 45.768 45.362 45.396 46.068 46.451 46.672 46.422 46.905 46.81 47.314 47.503 47.17 47.069 46.799 46.838 46.064 46.113 46.076 46.147 44.094 43.89 44.069 44.337 44.587 45.094 45.259 45.37 45.338 45.501 45.708 45.76 45.709 45.912 46.142 46.249 46.306 46.307 46.428 46.595 46.77 46.844 46.807 46.902 46.974 47.03 47.401 47.687 47.555 47.435 47.499 47.491 47.55 47.564 47.535 47.506 47.5 47.476 47.482 47.468 47.459 47.451 47.438 47.44 47.411 47.372 47.354 47.36 47.368 47.309 47.348 47.403 47.399 47.437 47.453 47.526 47.431 47.383 47.359 47.309 47.307 47.578 47.491 47.556 47.6 47.758 47.929 48.053 48.122 48.242 48.388 48.531 48.666 48.83 49.015 49.219 49.432 49.798 49.698 49.8 49.975 50.159 50.334 50.438 50.742 50.784 50.992 51.12 51.227 51.329 51.428 51.541 51.705 51.862 51.991 52.147 52.274 52.371 52.396 52.406 52.441 52.45 52.495 52.451 52.438 52.461 52.462 52.45 52.485 52.424 52.43 52.434 52.425 52.429 52.448 52.487 52.457 52.466 52.607 52.599 52.414 52.412 52.445 52.41 52.401
51.156 51.163 51.164 51.167 51.174 51.18 51.181 51.179 51.192 51.184 51.191 51.207 51.206 51.221 51.234 51.243 51.262 51.272 51.295 51.292 51.346 51.341 51.376 51.379 51.343 51.342 51.361 51.342 51.359 51.351 51.357 51.332 51.37 51.383 51.379 51.368 51.382 51.372 51.348 51.348 51.351 51.348 51.329 51.337 51.324 51.31 51.297 51.3 51.31 51.324 51.351 51.408 51.503 51.462 51.452 51.445 51.449 51.466 51.463 51.465 51.481 51.441 51.361 51.286 51.289 51.29 51.301 51.301 51.328 51.344 51.358 51.42 51.487 51.561 51.625 51.73 51.906 52.047 52.188 52.252 52.346 52.37 52.429 52.473 52.485 52.501 52.513 52.511 52.56 52.592 52.647 52.698 52.746 52.781 52.836 52.874 52.885 52.937 52.961 52.998 53.014 53.046 53.069 53.083 53.12 53.152 53.177 53.218 53.241 53.275 53.298 53.329 53.334 53.335 53.349 53.351 53.361 53.353 53.356 53.372 53.373 53.365 53.381 53.373 53.38 53.372 53.394 53.436 53.462 53.545 53.661 53.697 53.718 53.706 53.761 53.684 53.688 53.747 53.809 53.728 53.72 53.653 53.641 53.648 53.589 53.591 53.574 53.639 53.619 53.608 53.495 53.54 53.646 53.883 53.757 53.843 53.747 53.448 53.375 53.337 53.353 53.296 53.332 53.253 53.223 53.171 53.126 53.114 53.058 53.04 52.971 53.105 52.939 52.855 52.771 52.645 52.809 52.786 52.465 52.118 51.986 51.703 51.503 51.155 50.806 50.513 50.226 49.843 49.634 49.386 48.976 48.628 48.396 48.225 48.084 47.939 47.84 47.766 47.722 47.746 47.849 47.784 47.752 47.918 47.882 47.844 47.872 47.724 47.645 47.6 47.467 47.338 47.235 47.17 47.161 47.189 47.235 47.26 47.46 47.33 47.292 47.272 47.281 47.256 47.24 47.212 47.182 47.225 47.17 47.134 47.081 47.075 46.835 45.942 45.94 45.212 43.086 42.58 42.251 42.364 42.199 41.875 41.782 41.67 41.649 41.577 41.482 41.445 41.335 41.124 40.792 40.91 43.711 45.041 45.303 45.721 45.76 45.826 45.786 45.833 45.476 44.985 44.956 45.158 45.174 44.88 45.164 45.225 45.375 45.543 45.613 45.637 45.653 45.7 46.19 46.143 46.096 46.466 46.727 47.068 47.139 47.514 47.541 47.518 47.104 46.992 46.853 47.069 45.893 46.026 45.996 43.992 43.843 44.064 44.382 44.903 45.181 45.36 45.477 45.438 45.816 45.986 45.939 45.956 45.96 46.029 46.162 46.281 46.306 46.457 46.766 46.866 46.852 46.87 47.067 47.203 47.264 47.472 47.398 47.396 47.455 47.5 47.578 47.579 47.567 47.535 47.524 47.519 47.509 47.496 47.507 47.499 47.459 47.474 47.463 47.422 47.417 47.385 47.39 47.355 47.349 47.395 47.393 47.356 47.411 47.424 47.37 47.423 47.515 47.41 47.365 47.383 47.38 47.51 47.615 47.732 47.834 48.023 48.17 48.267 48.384 48.522 48.634 48.768 48.919 49.091 49.499 49.474 49.621 49.734 49.948 50.071 50.299 50.412 50.547 50.713 50.833 51.09 51.165 51.303 51.455 51.527 51.621 51.775 51.936 52.106 52.229 52.349 52.397 52.429 52.442 52.465 52.477 52.517 52.507 52.484 52.491 52.484 52.514 52.457 52.448 52.466 52.46 52.448 52.456 52.439 52.453 52.481 52.464 52.486 52.47 52.408 52.487 52.459 52.434 52.395
51.183 51.204 51.202 51.216 51.206 51.216 51.215 51.217 51.22 51.231 51.233 51.261 51.28 51.263 51.281 51.296 51.302 51.309 51.329 51.348 51.37 51.391 51.4 51.398 51.419 51.405 51.426 51.412 51.407 51.395 51.396 51.399 51.406 51.418 51.415 51.423 51.433 51.432 51.392 51.395 51.394 51.403 51.372 51.37 51.343 51.337 51.329 51.327 51.326 51.342 51.373 51.434 51.531 51.501 51.485 51.469 51.475 51.477 51.472 51.48 51.504 51.486 51.397 51.325 51.321 51.313 51.318 51.321 51.324 51.35 51.36 51.417 51.444 51.559 51.592 51.657 51.806 51.937 52.077 52.226 52.311 52.402 52.429 52.45 52.533 52.546 52.579 52.6 52.583 52.605 52.674 52.709 52.745 52.787 52.835 52.872 52.904 52.948 52.976 53.005 53.024 53.04 53.067 53.102 53.135 53.158 53.187 53.219 53.25 53.274 53.279 53.327 53.327 53.335 53.337 53.353 53.35 53.366 53.366 53.37 53.355 53.362 53.374 53.365 53.367 53.371 53.398 53.45 53.485 53.629 53.695 53.737 53.784 53.774 53.777 53.765 53.691 53.724 53.746 53.734 53.683 53.666 53.661 53.665 53.634 53.662 53.62 53.659 53.63 53.682 53.626 53.634 53.519 53.567 53.755 53.902 53.686 53.428 53.407 53.367 53.327 53.298 53.291 53.263 53.25 53.185 53.127 53.106 53.081 53.041 52.99 52.979 52.897 52.936 52.772 52.762 53.073 53.065 52.352 52.095 52.018 52.147 51.633 51.271 50.886 50.72 50.362 50.062 49.8 49.362 48.974 48.726 48.41 48.139 48.041 47.9 47.804 47.745 47.747 47.795 47.784 47.783 47.858 47.863 47.828 47.836 47.721 47.644 47.557 47.49 47.348 47.247 47.316 47.133 47.146 47.18 47.209 47.247 47.354 47.243 47.308 47.286 47.279 47.261 47.197 47.163 47.184 47.228 47.141 47.106 47.074 46.105 44.601 43.8 43.446 42.914 42.498 42.174 41.957 41.902 41.734 41.701 41.624 41.517 41.442 41.429 41.3 41.137 40.932 40.822 40.825 42.971 43.38 44.706 45.435 45.787 45.562 45.646 45.393 45.662 45.732 45.353 45.267 45.291 45.084 44.628 45.214 45.327 45.319 45.528 45.672 45.956 45.657 45.621 46.122 46.045 46.395 46.579 46.861 46.973 47.032 47.298 47.354 47.419 47.198 46.945 47.032 46.797 46.341 46.176 44.606 43.938 43.947 44.371 44.853 45.134 45.295 45.461 45.535 45.55 45.939 46.034 46.065 46.411 46.197 46.127 46.152 46.2 46.312 46.501 46.697 46.784 46.997 46.998 47.117 47.183 47.318 47.286 47.358 47.401 47.537 47.577 47.619 47.594 47.58 47.554 47.549 47.542 47.522 47.516 47.515 47.462 47.474 47.508 47.46 47.412 47.406 47.402 47.392 47.392 47.407 47.407 47.391 47.388 47.397 47.416 47.544 47.597 47.547 47.407 47.339 47.375 47.444 47.605 47.763 47.906 47.896 48.088 48.24 48.367 48.508 48.644 48.749 48.926 48.998 49.156 49.377 49.491 49.661 49.856 50.027 50.13 50.346 50.576 50.691 50.823 50.944 51.151 51.231 51.311 51.596 51.602 51.754 51.891 52.055 52.192 52.322 52.438 52.441 52.492 52.472 52.484 52.505 52.544 52.49 52.491 52.501 52.49 52.57 52.54 52.501 52.463 52.458 52.456 52.452 52.479 52.458 52.451 52.457 52.445 52.478 52.59 52.488 52.453 52.465 52.415
51.234 51.234 51.247 51.248 51.252 51.25 51.238 51.258 51.271 51.275 51.287 51.305 51.33 51.305 51.315 51.328 51.347 51.339 51.378 51.398 51.421 51.428 51.41 51.468 51.476 51.486 51.479 51.469 51.467 51.467 51.452 51.443 51.461 51.474 51.492 51.49 51.481 51.465 51.441 51.437 51.419 51.405 51.394 51.4 51.369 51.368 51.359 51.355 51.355 51.348 51.373 51.463 51.569 51.546 51.508 51.503 51.504 51.517 51.495 51.513 51.523 51.53 51.457 51.394 51.337 51.328 51.338 51.345 51.351 51.353 51.373 51.419 51.445 51.48 51.635 51.603 51.721 51.845 51.941 52.115 52.381 52.472 52.451 52.513 52.599 52.631 52.599 52.612 52.641 52.693 52.693 52.737 52.773 52.809 52.85 52.882 52.925 52.956 52.988 53.011 53.032 53.046 53.065 53.102 53.135 53.155 53.187 53.212 53.257 53.271 53.289 53.314 53.331 53.336 53.338 53.35 53.357 53.367 53.362 53.357 53.361 53.356 53.359 53.357 53.375 53.386 53.435 53.562 53.651 53.666 53.686 53.774 53.858 53.83 53.747 53.805 53.729 53.743 53.761 53.746 53.682 53.648 53.675 53.74 53.835 53.742 53.649 53.665 53.679 53.705 53.598 53.581 53.522 53.505 53.557 53.708 53.452 53.408 53.402 53.423 53.407 53.339 53.313 53.289 53.272 53.167 53.236 53.197 53.138 53.051 52.974 52.95 53.006 52.826 52.735 53.008 53.122 53.049 52.25 52.13 52.265 52.14 51.582 51.368 51.008 50.782 50.418 50.082 49.798 49.502 49.121 48.793 48.432 48.129 48.163 47.906 47.808 47.736 47.793 47.859 47.877 47.875 47.924 47.888 47.852 47.797 47.706 47.564 47.537 47.386 47.293 47.143 47.087 47.091 47.102 47.325 47.35 47.201 47.228 47.262 47.226 47.229 47.22 47.206 47.176 47.249 47.383 47.154 47.158 47.072 46 44.548 43.455 43.237 42.793 42.453 42.047 41.853 41.803 41.719 41.632 41.565 41.519 41.485 41.41 41.433 41.046 40.978 40.993 42.544 42.644 42.949 43.383 44.618 45.321 45.275 45.06 45.322 45.417 45.67 45.882 45.662 45.555 41.261 44.036 44.394 44.758 45.441 45.316 45.545 45.709 45.428 45.393 45.13 45.823 45.878 46.156 46.305 46.874 46.945 47.051 46.999 46.913 47.147 46.894 47.055 47.321 47.033 46.764 47.222 46.796 44.056 44.243 44.51 45.076 45.427 45.419 45.315 45.698 45.717 45.91 45.995 46.144 46.422 46.199 46.258 46.214 46.216 46.279 46.479 46.665 46.862 46.971 47.054 47.169 47.288 47.33 47.325 47.412 47.522 47.6 47.633 47.647 47.619 47.605 47.586 47.561 47.551 47.531 47.539 47.527 47.51 47.48 47.476 47.44 47.467 47.425 47.44 47.455 47.398 47.374 47.411 47.394 47.409 47.402 47.417 47.624 47.516 47.447 47.348 47.406 47.622 47.557 47.821 47.822 47.905 48.042 48.184 48.362 48.473 48.608 48.746 48.84 49.068 49.121 49.337 49.43 49.587 49.771 50.017 50.077 50.327 50.416 50.58 50.775 50.826 50.995 51.167 51.296 51.397 51.572 51.694 51.87 51.98 52.194 52.307 52.388 52.476 52.499 52.506 52.497 52.495 52.505 52.523 52.506 52.515 52.527 52.521 52.579 52.517 52.52 52.483 52.465 52.47 52.472 52.497 52.478 52.482 52.476 52.445 52.444 52.452 52.474 52.507 52.478 52.441
51.257 51.279 51.292 51.308 51.294 51.31 51.305 51.311 51.315 51.341 51.354 51.374 51.375 51.381 51.391 51.375 51.397 51.383 51.415 51.447 51.443 51.467 51.482 51.502 51.493 51.503 51.508 51.512 51.521 51.519 51.523 51.519 51.53 51.525 51.537 51.552 51.548 51.533 51.496 51.476 51.451 51.441 51.437 51.439 51.413 51.408 51.408 51.386 51.391 51.384 51.407 51.486 51.613 51.582 51.565 51.54 51.537 51.545 51.545 51.528 51.538 51.556 51.502 51.445 51.357 51.338 51.345 51.354 51.376 51.373 51.384 51.413 51.435 51.471 51.535 51.582 51.667 51.772 51.848 51.969 52.079 52.332 52.416 52.527 52.758 52.72 52.65 52.675 52.678 52.712 52.735 52.731 52.778 52.805 52.866 52.893 52.942 52.955 52.998 53.021 53.045 53.057 53.075 53.109 53.139 53.161 53.185 53.238 53.243 53.262 53.291 53.293 53.308 53.321 53.323 53.361 53.347 53.35 53.352 53.347 53.355 53.366 53.357 53.361 53.392 53.421 53.541 53.659 53.748 53.669 53.685 53.79 53.847 53.826 53.752 53.739 53.746 53.763 53.754 53.773 53.757 53.661 53.675 53.725 53.816 53.67 53.655 53.68 53.697 53.652 53.63 53.599 53.587 53.536 53.532 53.507 53.462 53.409 53.449 53.374 53.331 53.351 53.345 53.318 53.269 53.27 53.5 53.281 53.157 53.05 52.983 52.961 52.899 52.907 52.788 52.869 53.118 52.853 52.218 52.065 51.98 51.981 51.591 51.494 51.101 50.851 50.517 50.222 49.872 49.504 49.259 48.886 48.479 48.206 48.105 48.007 47.837 47.777 47.725 47.982 47.917 47.929 47.907 47.869 47.819 47.776 47.666 47.751 47.349 47.227 47.164 47.148 47.151 47.092 47.095 47.166 47.184 47.171 47.165 47.185 47.292 47.216 47.202 47.193 47.156 47.352 47.195 47.09 46.476 45.998 44.637 43.509 42.949 42.57 42.144 41.932 41.785 41.731 41.727 41.625 41.595 41.465 41.488 41.722 41.578 41.337 41.003 40.887 40.869 43.402 43.547 43.989 44.061 44.588 45.186 45.097 45.095 44.951 45.463 45.637 45.586 45.449 45.497 41.344 42.679 43.358 45.127 45.043 45.095 45.389 45.277 45.238 45.059 45.098 45.749 45.773 46.027 46.25 46.195 46.895 46.777 46.615 46.647 46.974 47.054 47.264 47.484 47.428 47.242 46.679 46.255 44.93 44.534 45.123 45.333 45.581 45.37 45.436 45.878 45.675 45.851 46.008 46.278 46.297 46.208 46.311 46.208 46.477 46.304 46.406 46.592 46.83 46.969 47.053 47.229 47.396 47.382 47.408 47.487 47.565 47.686 47.667 47.685 47.628 47.61 47.609 47.589 47.57 47.557 47.562 47.514 47.507 47.489 47.467 47.451 47.45 47.423 47.461 47.425 47.436 47.403 47.424 47.408 47.461 47.401 47.372 47.363 47.396 47.395 47.398 47.553 47.739 47.673 47.862 47.873 48.003 48.075 48.276 48.517 48.568 48.727 48.824 48.964 49.151 49.257 49.386 49.542 49.679 49.812 49.995 50.181 50.368 50.536 50.634 50.829 50.943 51.074 51.219 51.374 51.478 51.619 51.867 51.983 52.12 52.256 52.345 52.488 52.513 52.545 52.544 52.529 52.521 52.514 52.515 52.516 52.516 52.515 52.516 52.517 52.538 52.605 52.513 52.515 52.495 52.496 52.509 52.486 52.505 52.493 52.482 52.499 52.48 52.473 52.453 52.461 52.467
51.307 51.311 51.354 51.362 51.35 51.363 51.355 51.362 51.369 51.393 51.404 51.4 51.415 51.435 51.426 51.426 51.434 51.419 51.469 51.5 51.511 51.519 51.517 51.539 51.526 51.53 51.553 51.552 51.564 51.574 51.572 51.584 51.591 51.602 51.592 51.598 51.59 51.591 51.562 51.521 51.516 51.491 51.479 51.472 51.45 51.451 51.441 51.417 51.426 51.435 51.442 51.502 51.637 51.625 51.588 51.573 51.562 51.559 51.57 51.546 51.561 51.567 51.536 51.483 51.425 51.362 51.358 51.383 51.406 51.407 51.403 51.411 51.458 51.484 51.526 51.599 51.863 51.758 51.761 51.856 52.001 52.143 52.295 52.461 52.603 52.692 52.663 52.781 52.742 52.76 52.779 52.806 52.834 52.846 52.865 52.919 52.958 52.982 53.003 53.027 53.054 53.068 53.088 53.117 53.154 53.191 53.205 53.229 53.247 53.266 53.28 53.28 53.314 53.32 53.325 53.344 53.34 53.348 53.352 53.344 53.353 53.347 53.366 53.381 53.413 53.428 53.492 53.698 53.683 53.695 53.752 53.807 53.784 53.77 53.748 53.727 53.75 53.722 53.773 53.802 53.781 53.703 53.708 53.753 53.747 53.712 53.663 53.691 53.705 53.69 53.676 53.604 53.611 53.58 53.562 53.518 53.49 53.428 53.449 53.45 53.382 53.361 53.341 53.325 53.238 53.314 53.266 53.186 53.139 53.188 53.056 52.986 52.912 52.83 52.761 52.918 52.908 52.519 52.413 52.228 51.958 51.844 51.709 51.584 51.182 50.838 50.491 50.221 49.85 49.567 49.251 48.858 48.514 48.193 48.015 47.931 47.877 47.8 47.818 47.918 47.937 47.923 47.897 47.85 47.781 47.696 47.974 47.961 47.267 47.132 47.13 47.037 47.024 47.028 47.048 47.075 47.103 47.131 47.137 47.37 47.355 47.187 47.147 47.132 47.137 47.063 46.359 45.578 45.496 43.936 42.814 42.654 42.41 42.077 41.854 41.815 41.997 41.881 41.679 41.581 41.531 41.479 41.657 41.689 41.113 40.949 40.909 40.854 43.699 43.879 44.11 44.127 44.249 44.417 45.317 45.119 44.901 44.606 44.583 45.182 45.364 41.092 41.056 42.304 43.025 43.538 44.229 44.416 44.945 44.479 45.029 44.937 44.835 44.701 45.545 45.765 45.842 45.535 45.163 45.464 46.022 46.242 46.495 46.871 47.231 47.158 47.227 47.155 47.272 46.636 46.12 45.074 44.675 44.773 45.45 45.556 45.38 45.696 46.161 46.39 45.953 45.968 45.994 46.196 46.263 46.342 46.255 46.778 46.379 46.487 46.618 46.771 47.015 47.065 47.156 47.227 47.323 47.505 47.602 47.716 47.647 47.712 47.68 47.643 47.638 47.618 47.608 47.594 47.594 47.573 47.537 47.477 47.497 47.465 47.49 47.491 47.476 47.448 47.498 47.418 47.455 47.503 47.508 47.499 47.428 47.525 47.477 47.471 47.436 47.459 47.686 47.813 47.746 47.937 47.979 48.073 48.218 48.601 48.615 48.718 48.966 48.927 49.077 49.26 49.395 49.555 49.678 49.859 50.025 50.098 50.217 50.418 50.586 50.703 50.893 51.049 51.203 51.353 51.492 51.555 51.717 51.961 52.098 52.257 52.345 52.442 52.521 52.541 52.585 52.55 52.533 52.56 52.54 52.534 52.532 52.529 52.527 52.514 52.514 52.723 52.648 52.532 52.535 52.543 52.522 52.532 52.544 52.518 52.539 52.513 52.504 52.501 52.527 52.472 52.558 52.468
51.347 51.363 51.387 51.41 51.412 51.404 51.405 51.421 51.436 51.439 51.457 51.446 51.476 51.464 51.446 51.45 51.465 51.48 51.517 51.525 51.546 51.553 51.577 51.57 51.553 51.575 51.594 51.605 51.607 51.614 51.626 51.636 51.636 51.649 51.662 51.658 51.645 51.622 51.627 51.594 51.574 51.561 51.526 51.526 51.526 51.489 51.477 51.47 51.472 51.464 51.479 51.531 51.663 51.665 51.626 51.59 51.578 51.581 51.586 51.581 51.574 51.585 51.57 51.512 51.494 51.417 51.386 51.409 51.412 51.418 51.424 51.437 51.466 51.48 51.53 51.563 51.637 51.655 51.745 51.772 51.925 52.041 52.131 52.304 52.482 52.669 52.715 52.822 52.936 52.781 52.823 52.832 52.864 52.896 52.943 52.936 52.96 52.987 53.004 53.038 53.054 53.076 53.111 53.147 53.167 53.184 53.203 53.227 53.243 53.257 53.289 53.307 53.314 53.337 53.34 53.332 53.341 53.343 53.337 53.342 53.342 53.359 53.376 53.402 53.439 53.493 53.544 53.648 53.669 53.728 53.844 53.833 53.811 53.762 53.725 53.734 53.701 53.71 53.718 53.777 53.825 53.744 53.657 53.655 53.739 53.756 53.666 53.718 53.733 53.707 53.669 53.64 53.654 53.67 53.617 53.568 53.489 53.442 53.491 53.358 53.391 53.353 53.363 53.316 53.278 53.273 53.323 53.176 53.135 53.181 53.204 52.995 52.882 52.804 52.711 52.711 52.704 52.587 52.47 52.101 51.96 51.776 51.582 51.499 51.066 50.794 50.513 50.123 49.827 49.583 49.295 48.782 48.527 48.203 48.1 47.943 47.861 47.811 47.909 47.931 47.959 47.977 47.874 47.838 47.752 47.607 47.448 47.271 47.087 47.008 47.005 47.021 46.977 47.004 46.994 47.041 47.089 47.102 47.087 47.075 47.085 47.107 47.121 47.141 46.408 44.875 44.224 43.872 43.084 42.795 42.439 42.255 41.897 41.782 41.698 41.642 41.867 41.788 41.512 41.46 41.418 41.149 41.516 41.233 40.964 40.99 40.814 40.93 40.975 43.72 43.77 43.775 43.775 44.117 43.984 43.771 43.725 43.638 43.429 44.28 41.119 41.049 41.067 42.518 42.644 42.976 43.21 42.378 41.906 43.609 43.69 44.215 41.967 42.648 42.769 42.61 42.486 42.58 42.748 44.755 45.218 45.924 46.401 46.442 47.082 47.245 47.216 47.163 44.253 44.337 45.79 44.654 44.786 45.188 45.29 45.421 45.353 45.899 46.087 46.467 46.91 45.873 45.931 46.291 46.283 46.375 46.388 46.55 46.528 47.036 46.967 46.797 46.867 47.027 47.179 47.273 47.422 47.576 47.675 47.684 47.748 47.706 47.693 47.673 47.654 47.64 47.622 47.635 47.576 47.56 47.526 47.507 47.484 47.449 47.49 47.455 47.459 47.505 47.513 47.45 47.508 47.495 47.51 47.456 47.491 47.795 47.611 47.664 47.495 47.681 47.93 47.839 47.84 48.018 48.107 48.181 48.372 48.497 48.648 48.789 48.9 49.018 49.214 49.392 49.507 49.64 49.773 50.151 50.215 50.235 50.324 50.622 50.723 50.851 50.955 51.122 51.286 51.474 51.547 51.656 51.901 52.078 52.18 52.355 52.464 52.488 52.502 52.608 52.553 52.586 52.541 52.581 52.56 52.557 52.541 52.545 52.539 52.524 52.552 52.536 52.551 52.6 52.6 52.577 52.546 52.546 52.556 52.546 52.533 52.636 52.576 52.515 52.53 52.527 52.472 52.479
51.38 51.4 51.423 51.434 51.448 51.449 51.455 51.458 51.474 51.493 51.486 51.485 51.502 51.494 51.492 51.488 51.495 51.516 51.551 51.559 51.57 51.581 51.601 51.567 51.592 51.619 51.629 51.637 51.651 51.655 51.673 51.672 51.679 51.681 51.681 51.698 51.694 51.686 51.657 51.623 51.626 51.623 51.595 51.587 51.573 51.556 51.54 51.514 51.494 51.498 51.514 51.593 51.671 51.679 51.642 51.619 51.602 51.606 51.602 51.608 51.596 51.608 51.589 51.543 51.544 51.47 51.422 51.424 51.424 51.433 51.442 51.452 51.475 51.505 51.527 51.575 51.617 51.714 51.831 51.815 51.804 51.949 52.108 52.244 52.369 52.7 52.734 52.774 53.014 52.821 52.843 52.875 52.896 52.914 52.933 52.976 52.995 52.991 53.016 53.046 53.068 53.085 53.119 53.141 53.164 53.179 53.191 53.221 53.242 53.265 53.284 53.298 53.307 53.327 53.311 53.314 53.328 53.345 53.34 53.343 53.346 53.373 53.391 53.401 53.441 53.498 53.566 53.616 53.703 53.726 53.749 53.745 53.753 53.719 53.678 53.711 53.692 53.684 53.786 53.759 53.727 53.666 53.602 53.638 53.661 53.675 53.66 53.705 53.763 53.703 53.673 53.758 53.785 53.773 53.739 53.621 53.515 53.498 53.321 53.289 53.272 53.297 53.315 53.288 53.277 53.271 53.236 53.163 53.161 53.355 53.362 53.015 52.865 52.766 52.68 52.762 52.949 52.817 52.541 52.073 51.983 51.776 51.45 51.261 50.999 50.738 50.443 50.234 49.876 49.571 49.172 48.803 48.524 48.199 48.054 47.926 47.876 47.897 47.947 47.948 47.976 47.927 47.881 47.829 47.698 47.414 47.214 47.272 46.998 46.927 46.903 46.928 47.085 46.889 46.981 47.031 47.046 47.063 47.053 47.113 47.208 47.054 45.997 44.464 44.069 43.793 43.481 43.012 42.627 42.407 42.055 41.704 41.685 41.6 41.576 41.415 41.479 41.396 41.407 41.166 41.115 41.105 41.039 41.042 41.018 40.953 40.94 41.045 41.445 41.541 41.519 43.525 43.375 43.065 41.551 41.298 41.206 42.951 42.769 41.586 41.193 41.069 41.713 41.603 42.613 42.308 41.952 42.093 41.895 41.922 42.164 42.159 42.137 42.213 42.327 42.426 42.456 42.552 42.684 42.94 43.029 43.135 43.318 46.743 43.837 46.737 47.635 47.574 44.457 44.457 44.525 44.731 44.973 45.494 45.763 45.7 45.376 45.496 45.751 46.658 47.178 45.898 46.096 46.185 46.364 46.444 46.412 46.543 46.573 47.274 47.522 47.05 46.931 47.02 47.171 47.433 47.476 47.652 47.658 47.748 47.753 47.719 47.714 47.695 47.674 47.662 47.646 47.63 47.573 47.556 47.515 47.52 47.556 47.472 47.507 47.545 47.52 47.52 47.48 47.515 47.543 47.484 47.484 47.459 47.518 47.511 47.572 47.56 47.691 48.107 47.827 47.89 47.957 48.065 48.166 48.314 48.458 48.571 48.686 48.877 48.983 49.208 49.343 49.438 49.618 49.755 49.988 50.139 50.16 50.278 50.447 50.665 50.745 50.848 51.035 51.193 51.346 51.499 51.57 51.705 51.867 52.096 52.216 52.357 52.462 52.509 52.528 52.566 52.543 52.561 52.559 52.573 52.591 52.576 52.55 52.554 52.553 52.548 52.556 52.555 52.59 52.621 52.639 52.573 52.54 52.545 52.581 52.552 52.563 52.548 52.526 52.522 52.508 52.503 52.507 52.516
51.411 51.426 51.448 51.46 51.485 51.475 51.482 51.493 51.519 51.514 51.522 51.52 51.535 51.531 51.524 51.525 51.537 51.543 51.56 51.59 51.607 51.618 51.624 51.631 51.479 51.632 51.662 51.665 51.672 51.687 51.68 51.712 51.713 51.723 51.73 51.728 51.735 51.738 51.734 51.696 51.672 51.69 51.672 51.644 51.61 51.59 51.583 51.535 51.54 51.541 51.538 51.627 51.695 51.695 51.672 51.639 51.612 51.627 51.613 51.609 51.614 51.613 51.612 51.591 51.581 51.551 51.456 51.442 51.442 51.455 51.457 51.468 51.482 51.517 51.528 51.593 51.613 51.681 51.78 51.792 51.745 51.831 52.036 52.264 52.371 52.508 52.681 52.749 52.989 52.859 52.865 52.965 52.946 52.941 52.962 52.984 53.017 53.042 53.072 53.061 53.075 53.098 53.125 53.135 53.157 53.174 53.195 53.222 53.232 53.256 53.281 53.287 53.3 53.301 53.308 53.318 53.332 53.346 53.329 53.336 53.357 53.378 53.395 53.407 53.437 53.474 53.591 53.634 53.668 53.685 53.681 53.714 53.673 53.671 53.667 53.647 53.704 53.678 53.739 53.711 53.633 53.62 53.609 53.633 53.665 53.66 53.655 53.682 53.746 53.721 53.684 53.834 53.893 53.905 53.865 53.749 53.588 53.522 53.303 53.266 53.248 53.278 53.283 53.298 53.257 53.239 53.317 53.174 53.125 53.12 53.177 52.922 52.841 52.768 52.704 52.634 53.418 52.33 52.144 51.996 51.957 51.693 51.455 51.193 50.963 50.633 50.476 50.599 49.746 49.475 49.062 48.798 48.485 48.286 48.181 48.039 47.911 47.952 47.951 47.978 47.991 47.942 47.916 47.815 47.68 47.308 47.106 47.121 46.905 46.872 46.841 46.859 46.879 46.848 46.883 46.958 47.07 47.022 47.004 47.021 46.947 44.145 43.924 43.721 43.55 43.345 42.795 42.323 41.807 41.665 41.583 41.47 41.415 41.407 41.34 41.437 41.378 41.241 41.112 41.125 41.149 41.172 41.137 41.025 41.019 41.041 41.017 41.113 41.446 41.54 41.427 41.344 41.316 41.318 41.538 41.591 41.302 41.333 41.37 41.402 41.221 41.241 41.403 41.506 41.642 41.816 41.912 42.027 42.033 42.136 42.196 42.206 42.226 42.312 42.373 42.446 42.498 42.59 42.671 42.785 42.947 43.131 43.155 43.387 43.599 43.779 44.007 44.211 44.484 44.59 44.674 44.888 45.135 45.303 45.579 45.346 45.478 45.634 45.695 46.738 47.664 47.126 46.246 46.353 46.403 46.506 46.629 46.681 46.719 47.436 47.413 47.016 47.057 47.143 47.225 47.397 47.581 47.657 47.754 47.812 47.752 47.732 47.731 47.693 47.69 47.678 47.67 47.611 47.583 47.575 47.54 47.509 47.506 47.485 47.504 47.547 47.517 47.496 47.546 47.63 47.554 47.548 47.478 47.512 47.587 47.667 47.8 47.501 47.735 47.787 47.883 47.945 48.119 48.205 48.263 48.398 48.504 48.66 48.789 48.904 49.078 49.232 49.387 49.54 49.694 49.84 49.992 50.123 50.293 50.462 50.574 50.637 50.815 50.95 51.134 51.264 51.386 51.523 51.649 51.768 51.814 51.968 52.259 52.398 52.5 52.541 52.553 52.555 52.562 52.549 52.549 52.582 52.581 52.581 52.57 52.57 52.573 52.563 52.564 52.568 52.565 52.658 52.644 52.587 52.548 52.58 52.568 52.558 52.607 52.587 52.564 52.564 52.538 52.549 52.517 52.519
51.437 51.469 51.497 51.498 51.491 51.501 51.505 51.512 51.523 51.524 51.543 51.551 51.551 51.556 51.555 51.552 51.563 51.569 51.584 51.604 51.633 51.64 51.653 51.648 51.664 51.661 51.687 51.699 51.709 51.698 51.716 51.736 51.736 51.746 51.752 51.76 51.759 51.761 51.784 51.747 51.736 51.716 51.712 51.665 51.639 51.62 51.626 51.575 51.575 51.571 51.57 51.628 51.676 51.706 51.68 51.641 51.624 51.635 51.637 51.628 51.628 51.631 51.622 51.618 51.612 51.574 51.501 51.459 51.457 51.462 51.482 51.469 51.491 51.507 51.532 51.567 51.606 51.651 51.927 51.812 51.721 51.786 51.951 52.075 52.336 52.423 52.553 52.682 52.875 52.94 52.901 52.943 52.967 52.974 52.974 52.99 53.02 53.066 53.089 53.08 53.082 53.095 53.12 53.133 53.152 53.179 53.204 53.205 53.22 53.237 53.257 53.271 53.281 53.292 53.313 53.327 53.334 53.327 53.339 53.362 53.367 53.373 53.402 53.398 53.438 53.504 53.559 53.607 53.652 53.686 53.661 53.68 53.64 53.637 53.63 53.639 53.658 53.684 53.698 53.618 53.618 53.583 53.646 53.638 53.793 53.713 53.666 53.683 53.738 53.641 53.6 53.672 53.789 53.897 53.922 53.839 53.667 53.469 53.356 53.203 53.25 53.337 53.312 53.28 53.231 53.212 53.274 53.294 53.121 53.076 53.032 52.988 52.895 52.79 52.686 52.616 53.629 53.182 52.229 51.963 51.785 51.597 51.516 51.207 50.899 50.512 50.345 50.026 49.648 49.386 49.135 48.759 48.465 48.215 48.162 48.074 47.964 47.975 47.967 47.979 47.971 47.926 47.905 47.778 47.675 47.224 47.032 47.127 46.917 46.785 46.786 46.786 46.78 46.775 46.796 46.883 47.013 46.878 45.537 43.952 43.615 43.421 43.24 42.977 42.803 42.521 41.873 41.765 41.679 41.521 41.377 41.373 41.27 41.281 41.194 41.195 41.266 41.205 41.266 41.399 41.209 41.193 41.087 41.047 41.028 41.05 41.288 41.3 41.348 41.346 41.325 41.366 41.366 41.394 41.481 41.638 41.334 41.39 41.352 41.304 41.27 41.362 41.557 41.737 41.868 41.878 41.938 41.986 42.019 42.093 42.144 42.173 42.232 42.317 42.404 42.545 42.525 42.587 42.767 42.82 43.331 43.124 43.297 43.428 43.49 43.692 43.865 44.031 44.236 44.482 44.699 44.939 45.136 45.368 45.333 45.452 45.666 45.729 45.778 46.584 47.476 47.077 46.445 46.464 46.441 46.749 46.78 46.746 46.832 46.896 46.928 47.06 47.226 47.287 47.374 47.474 47.632 47.772 47.813 47.817 47.755 47.767 47.716 47.709 47.696 47.699 47.664 47.631 47.603 47.597 47.584 47.531 47.519 47.507 47.551 47.533 47.588 47.507 47.498 47.542 47.628 47.726 47.655 47.667 47.526 47.531 47.722 47.831 47.849 47.884 47.91 48.002 48.089 48.202 48.351 48.496 48.715 48.885 48.881 48.973 49.117 49.321 49.467 49.637 49.8 49.976 50.073 50.182 50.347 50.491 50.632 50.7 50.872 51.097 51.197 51.523 51.509 51.587 51.778 51.988 52.038 52.055 52.189 52.327 52.409 52.523 52.616 52.6 52.581 52.552 52.581 52.59 52.595 52.587 52.594 52.589 52.58 52.582 52.577 52.579 52.6 52.572 52.613 52.599 52.587 52.574 52.567 52.583 52.616 52.631 52.569 52.603 52.593 52.549 52.548 52.52
51.459 51.488 51.503 51.539 51.519 51.532 51.535 51.544 51.555 51.561 51.573 51.575 51.575 51.591 51.579 51.579 51.582 51.586 51.606 51.625 51.634 51.664 51.673 51.678 51.672 51.69 51.717 51.718 51.713 51.72 51.751 51.758 51.756 51.773 51.78 51.791 51.794 51.799 51.81 51.788 51.783 51.763 51.757 51.722 51.691 51.658 51.627 51.602 51.608 51.607 51.61 51.63 51.717 51.731 51.703 51.67 51.648 51.658 51.661 51.652 51.654 51.66 51.668 51.661 51.637 51.593 51.511 51.463 51.472 51.481 51.495 51.485 51.493 51.515 51.536 51.566 51.615 51.649 51.747 51.753 51.74 51.795 51.867 52.029 52.281 52.404 52.513 52.625 52.722 52.892 52.963 52.979 53.004 52.98 52.981 53.014 53.048 53.058 53.072 53.105 53.099 53.107 53.132 53.145 53.17 53.183 53.206 53.218 53.222 53.213 53.239 53.246 53.274 53.289 53.308 53.326 53.336 53.323 53.325 53.344 53.365 53.363 53.386 53.405 53.442 53.501 53.546 53.574 53.612 53.656 53.662 53.672 53.683 53.722 53.768 53.791 53.722 53.693 53.672 53.62 53.56 53.55 53.614 53.61 53.7 53.716 53.684 53.718 53.687 53.565 53.571 53.626 53.612 53.678 53.938 53.702 53.573 53.413 53.322 53.254 53.349 53.509 53.337 53.255 53.235 53.305 53.457 53.293 53.107 53.078 53.062 53.052 52.886 52.857 52.713 52.547 52.375 52.237 52.143 51.911 51.754 51.575 51.325 51.117 50.837 50.44 50.179 49.915 49.612 49.226 48.952 48.66 48.397 48.224 48.106 48.015 48 47.99 47.984 47.977 47.94 48.203 47.862 47.762 47.61 47.183 47.178 47.052 46.745 46.686 46.694 46.668 46.706 46.678 46.713 46.704 44.767 43.296 43.178 43.221 42.867 42.479 42.483 42.306 42.182 41.725 41.585 41.648 41.637 41.351 41.281 41.22 41.19 41.184 41.325 41.364 41.528 41.428 41.566 41.38 41.239 41.139 41.055 41.095 41.103 41.329 41.422 41.361 41.39 41.338 41.35 41.375 41.425 41.498 41.43 41.404 41.438 41.409 41.418 41.381 41.532 41.55 41.723 41.831 41.836 41.87 41.958 42.004 42.023 42.096 42.175 42.214 42.253 42.344 42.363 42.492 42.61 43.199 43.348 43.482 43.546 43.404 43.292 43.442 43.629 43.756 43.895 44.037 44.217 44.364 44.594 44.753 44.973 45.185 45.383 45.507 45.73 45.96 45.89 46.091 46.323 46.59 46.525 46.591 46.591 46.639 46.801 46.909 46.89 46.972 47.09 47.148 47.256 47.432 47.546 47.623 47.759 47.839 47.83 47.809 47.801 47.785 47.753 47.739 47.731 47.714 47.665 47.637 47.616 47.579 47.597 47.545 47.527 47.534 47.565 47.614 47.503 47.532 47.502 47.6 47.744 47.608 47.637 47.567 47.7 47.631 47.537 48.14 47.919 47.857 47.969 48.053 48.16 48.341 48.438 48.608 49.027 48.967 48.939 49.074 49.322 49.415 49.572 49.704 49.923 49.997 50.152 50.292 50.4 50.656 50.672 50.796 51.194 51.119 51.245 51.395 51.524 51.63 51.771 52.029 52.17 52.374 52.425 52.466 52.426 52.407 52.501 52.577 52.574 52.595 52.591 52.591 52.599 52.595 52.593 52.598 52.608 52.626 52.663 52.598 52.607 52.614 52.605 52.611 52.614 52.593 52.581 52.572 52.621 52.696 52.622 52.99 52.717 52.568 52.547 52.585
51.503 51.522 51.537 51.561 51.559 51.556 51.548 51.566 51.576 51.578 51.592 51.604 51.609 51.609 51.604 51.605 51.616 51.624 51.631 51.647 51.653 51.68 51.685 51.689 51.705 51.697 51.721 51.742 51.736 51.75 51.757 51.77 51.779 51.794 51.798 51.82 51.826 51.835 51.84 51.822 51.813 51.797 51.787 51.765 51.73 51.701 51.663 51.637 51.644 51.637 51.636 51.656 51.779 51.736 51.717 51.681 51.676 51.682 51.665 51.671 51.69 51.678 51.716 51.693 51.639 51.621 51.524 51.489 51.49 51.508 51.511 51.509 51.501 51.515 51.55 51.566 51.602 51.638 51.677 51.753 51.757 51.789 51.968 52.134 52.308 52.459 52.604 52.644 52.701 52.79 52.928 53 53.024 52.993 53.011 53.039 53.045 53.07 53.084 53.094 53.107 53.119 53.14 53.148 53.161 53.185 53.202 53.216 53.208 53.212 53.217 53.24 53.274 53.286 53.302 53.311 53.329 53.336 53.341 53.347 53.357 53.375 53.379 53.404 53.457 53.497 53.596 53.653 53.632 53.628 53.764 53.785 53.767 53.915 53.979 53.946 53.888 53.8 53.727 53.638 53.583 53.609 53.629 53.6 53.647 53.671 53.674 53.64 53.624 53.529 53.563 53.565 53.539 53.568 53.545 53.572 53.459 53.426 53.41 53.404 53.348 53.311 53.464 53.214 53.204 53.184 53.138 53.12 53.097 53.07 53.238 52.914 52.838 52.807 52.57 52.489 52.579 52.362 51.913 51.771 51.595 51.463 51.244 50.912 50.634 50.4 50.041 49.875 49.46 49.123 48.866 48.6 48.315 48.204 48.083 48.022 48.023 48.018 47.998 48.011 48.286 48.295 47.849 47.821 47.423 47.117 47.021 47.138 46.691 46.617 46.594 46.575 46.562 46.61 44.933 43.42 43.076 42.84 42.424 42.228 42.089 42.029 41.939 41.776 41.603 41.568 41.537 41.374 41.276 41.352 41.365 41.226 41.169 41.306 41.5 41.663 41.626 41.484 41.238 41.246 41.168 41.081 41.114 41.098 41.313 41.502 41.382 41.393 41.371 41.329 41.411 41.393 41.47 41.491 41.622 41.663 41.682 41.542 41.673 41.512 41.613 41.691 41.72 41.768 41.804 41.937 42.022 42.045 42.057 42.141 42.195 42.261 42.322 44.379 44.1 45.027 44.701 45.47 45.916 44.245 44.676 46.379 43.659 43.511 43.568 43.787 43.97 44.113 44.287 44.422 44.607 44.742 44.906 45.029 45.266 45.514 45.644 45.767 46.009 46.131 46.315 46.438 46.5 46.576 46.762 46.77 46.886 46.908 46.93 47.057 47.232 47.384 47.432 47.51 47.66 47.775 47.856 47.872 47.849 47.833 47.824 47.807 47.773 47.771 47.756 47.684 47.674 47.675 47.625 47.615 47.569 47.553 47.57 47.557 47.584 47.557 47.53 47.557 47.519 47.614 47.783 47.675 47.579 47.772 47.917 47.878 47.56 47.724 47.814 47.939 47.986 48.145 48.32 48.428 48.53 48.692 48.887 48.947 49.052 49.226 49.391 49.522 49.612 49.8 49.922 50.217 50.355 50.329 50.473 50.706 50.771 50.87 51.145 51.239 51.351 51.519 51.803 51.791 51.833 51.955 52.347 52.369 52.505 52.559 52.547 52.506 52.491 52.585 52.587 52.59 52.604 52.611 52.626 52.61 52.603 52.608 52.616 52.618 52.621 52.624 52.613 52.609 52.614 52.649 52.65 52.632 52.578 52.584 52.605 52.576 52.585 52.775 52.699 52.581 52.558 52.587
51.537 51.563 51.564 51.585 51.594 51.59 51.586 51.592 51.602 51.603 51.621 51.611 51.625 51.642 51.625 51.636 51.622 51.642 51.644 51.661 51.687 51.693 51.728 51.717 51.731 51.731 51.749 51.742 51.761 51.763 51.777 51.784 51.811 51.819 51.833 51.849 51.856 51.871 51.862 51.848 51.84 51.822 51.826 51.805 51.756 51.725 51.705 51.668 51.665 51.669 51.674 51.686 51.83 51.76 51.724 51.707 51.683 51.705 51.697 51.701 51.705 51.706 51.732 51.707 51.675 51.636 51.566 51.502 51.516 51.523 51.525 51.525 51.518 51.509 51.547 51.556 51.609 51.637 51.659 51.786 51.755 51.839 52.034 52.279 52.452 52.597 52.742 52.746 52.734 52.762 52.839 52.983 53.018 53.007 53.033 53.059 53.068 53.079 53.092 53.112 53.126 53.125 53.137 53.163 53.17 53.2 53.208 53.213 53.204 53.206 53.233 53.248 53.267 53.283 53.29 53.298 53.322 53.329 53.343 53.348 53.361 53.371 53.391 53.401 53.474 53.632 53.712 53.84 53.751 53.666 53.732 53.815 53.896 53.986 54 53.987 53.98 53.929 53.889 53.809 53.704 53.758 53.779 53.695 53.722 53.685 53.66 53.635 53.576 53.5 53.496 53.531 53.542 53.603 53.526 53.457 53.48 53.427 53.392 53.292 53.294 53.275 53.314 53.213 53.16 53.186 53.092 53.102 53.054 52.978 53 52.918 52.793 52.696 52.582 52.565 52.686 51.994 51.765 51.578 51.529 51.185 51.132 50.71 50.548 50.25 49.938 49.682 49.404 49.061 48.762 48.538 48.293 48.202 48.108 48.038 48.032 48.038 48.026 48.505 48.73 47.944 47.855 47.806 47.429 47.03 46.815 47.083 46.47 46.482 46.516 46.484 46.48 44.259 43.539 43.227 42.889 42.543 42.263 42.029 42.012 41.94 41.79 42.007 41.552 41.469 41.431 41.414 41.413 41.471 41.44 41.257 41.244 41.351 41.573 41.65 41.648 41.356 41.315 41.151 41.148 41.148 41.143 41.236 41.368 41.408 41.381 41.364 41.38 41.455 41.429 41.541 41.589 41.549 41.44 41.486 41.515 41.622 41.584 41.636 41.676 41.668 41.729 41.817 41.913 42.109 42.091 42.659 42.061 42.156 43.749 43.724 43.783 44.655 45.195 45.221 45.403 45.795 45.915 45.837 44.974 46.751 43.418 43.514 43.775 43.845 44.03 44.138 44.324 44.503 44.672 44.8 44.95 45.06 45.209 45.345 45.517 45.719 45.923 46.111 46.267 46.403 46.533 46.674 46.839 46.905 47.006 46.998 47.105 47.278 47.363 47.493 47.573 47.708 47.795 47.855 47.929 47.888 47.876 47.851 47.832 47.821 47.803 47.794 47.723 47.689 47.684 47.649 47.635 47.623 47.571 47.572 47.557 47.586 47.596 47.556 47.551 47.578 47.561 47.549 47.732 47.636 47.611 47.724 47.796 47.775 47.619 47.834 47.957 47.994 48.189 48.272 48.388 48.501 48.662 48.824 48.933 49.035 49.198 49.374 49.527 49.625 49.814 49.925 50.046 50.263 50.414 50.461 50.553 50.731 50.828 51.094 51.107 51.321 51.456 51.793 51.807 51.875 52.017 52.119 52.429 52.412 52.512 52.597 52.542 52.575 52.543 52.568 52.6 52.658 52.677 52.622 52.684 52.643 52.621 52.623 52.612 52.649 52.631 52.624 52.622 52.629 52.621 52.657 52.705 53.022 52.613 52.586 52.606 52.624 52.615 52.607 52.592 52.631 52.607 52.603
51.552 51.592 51.576 51.6 51.616 51.61 51.613 51.601 51.614 51.618 51.637 51.639 51.65 51.644 51.638 51.657 51.647 51.654 51.665 51.689 51.707 51.708 51.712 51.738 51.755 51.753 51.768 51.767 51.781 51.779 51.797 51.808 51.831 51.849 51.847 51.865 51.878 51.882 51.884 51.873 51.862 51.851 51.847 51.832 51.789 51.767 51.734 51.695 51.701 51.693 51.681 51.735 51.867 51.781 51.735 51.714 51.719 51.739 51.745 51.736 51.73 51.726 51.718 51.736 51.699 51.662 51.611 51.558 51.546 51.538 51.564 51.537 51.51 51.508 51.546 51.576 51.597 51.625 51.654 51.713 51.789 51.879 51.98 52.198 52.418 52.656 52.779 52.843 52.86 52.824 52.853 52.966 52.995 53.02 53.037 53.066 53.088 53.109 53.119 53.123 53.133 53.137 53.134 53.171 53.198 53.201 53.205 53.195 53.202 53.22 53.243 53.264 53.266 53.287 53.287 53.322 53.331 53.328 53.33 53.351 53.37 53.372 53.382 53.458 53.591 53.704 53.826 53.85 53.848 53.874 53.789 53.877 53.968 53.996 53.985 54.004 54.034 54.008 53.983 53.945 53.933 53.956 53.933 53.861 53.851 53.779 53.67 53.59 53.57 53.585 53.553 53.544 53.565 53.557 53.521 53.441 53.414 53.361 53.3 53.253 53.248 53.26 53.2 53.174 53.104 53.11 53.069 53.458 53.162 52.933 52.913 52.875 52.87 52.745 52.851 52.441 52.034 51.795 51.571 51.383 51.415 50.946 50.722 50.501 50.336 50.101 49.783 49.518 49.437 49.029 48.71 48.475 48.293 48.25 48.111 48.06 48.179 48.041 48.033 48.599 48.546 47.911 47.861 47.825 47.285 47.049 47.368 47.018 46.428 46.396 46.362 46.366 45.403 43.55 43.317 43.101 42.648 42.309 42.046 41.942 42.004 41.772 42.004 42.354 41.537 41.419 41.479 41.56 41.445 41.449 41.444 41.305 41.289 41.4 41.712 41.721 41.564 41.407 41.145 41.156 41.193 41.199 41.266 41.358 41.397 41.373 41.371 41.387 41.423 41.477 41.545 41.657 41.472 41.374 41.435 41.418 41.505 41.595 41.586 41.619 41.642 41.707 41.788 41.87 41.938 42.168 42.351 42.395 42.074 42.158 42.261 43.887 43.836 44.947 45.123 45.322 45.889 46.267 45.998 45.856 46.935 46.722 45.841 44.109 43.773 43.906 44.073 44.203 44.387 44.507 44.686 44.85 44.991 45.117 45.267 45.384 45.528 45.675 45.846 46.069 46.231 46.406 46.562 46.771 46.891 47.022 47.109 47.156 47.24 47.323 47.451 47.638 47.751 47.848 47.895 47.95 47.928 47.911 47.896 47.869 47.864 47.835 47.819 47.786 47.723 47.716 47.68 47.651 47.655 47.606 47.576 47.6 47.603 47.581 47.612 47.587 47.658 47.642 47.61 47.596 47.606 47.637 47.611 47.666 47.675 47.666 47.843 48.06 48.124 48.14 48.347 48.377 48.483 48.648 48.736 48.811 49.005 49.153 49.379 49.479 49.603 49.78 50 50.052 50.147 50.246 50.358 50.505 50.632 50.783 50.915 51.102 51.19 51.384 51.589 51.844 51.82 51.924 52.222 52.241 52.452 52.571 52.513 52.527 52.569 52.567 52.582 52.602 52.595 52.622 52.629 52.632 52.648 52.652 52.663 52.647 52.652 52.673 52.642 52.638 52.633 52.699 52.666 52.679 52.66 52.72 52.626 52.625 52.655 52.697 52.67 52.637 52.615 52.627 52.62 52.608
51.574 51.585 51.604 51.627 51.632 51.634 51.631 51.633 51.629 51.642 51.651 51.66 51.661 51.661 51.664 51.668 51.651 51.667 51.686 51.704 51.721 51.72 51.737 51.743 51.771 51.787 51.799 51.792 51.81 51.796 51.805 51.826 51.86 51.87 51.867 51.894 51.908 51.904 51.907 51.9 51.883 51.875 51.873 51.871 51.84 51.794 51.766 51.727 51.732 51.717 51.705 51.746 51.896 51.82 51.785 51.753 51.754 51.761 51.77 51.768 51.763 51.758 51.763 51.768 51.733 51.685 51.666 51.627 51.594 51.587 51.58 51.542 51.565 51.561 51.574 51.585 51.6 51.625 51.659 51.697 51.809 51.828 51.928 52.002 52.224 52.424 52.612 52.774 52.862 52.904 52.91 53.002 53.017 53.031 53.054 53.075 53.1 53.127 53.134 53.133 53.14 53.153 53.176 53.183 53.188 53.193 53.187 53.182 53.208 53.219 53.249 53.263 53.271 53.292 53.294 53.336 53.328 53.333 53.353 53.359 53.368 53.39 53.417 53.491 53.596 53.795 53.991 54.061 54.042 54.014 53.968 54.006 54.04 54.045 54.047 54.051 54.073 54.082 54.078 54.053 54.048 54.073 54.062 54.002 53.941 53.901 53.742 53.637 53.635 53.664 53.645 53.626 53.651 53.623 53.555 53.52 53.469 53.567 53.267 53.224 53.174 53.203 53.203 53.148 53.055 53.022 53.085 53.301 52.931 52.893 52.875 52.985 52.759 52.779 52.491 52.13 51.736 51.517 51.265 51.217 51.594 50.647 50.415 50.287 50.03 49.808 49.747 49.731 49.212 48.826 48.544 48.347 48.249 48.136 48.099 48.082 48.071 48.033 48.027 48.01 47.945 47.923 47.884 47.716 47.122 47.026 47.274 47.207 46.613 46.293 46.336 46.456 44.429 43.484 43.03 42.813 42.579 42.217 41.945 41.895 41.97 42.592 42.566 41.738 41.819 42.022 41.557 41.508 41.484 41.472 41.486 41.326 41.32 41.396 41.431 41.271 41.22 41.153 41.171 41.215 41.264 41.29 41.332 41.37 41.393 41.427 41.439 41.437 41.456 41.467 41.491 41.655 41.696 41.463 41.448 41.427 41.47 41.518 41.576 41.638 41.704 41.774 41.753 41.915 41.937 41.973 41.942 44.37 44.77 42.075 45.337 45.154 44.419 45.309 45.538 45.9 46.386 46.438 46.824 47.181 47.408 47.789 47.094 48.106 47.533 44.09 47.406 44.322 44.466 44.637 44.79 44.902 45.043 45.19 45.345 45.464 45.626 45.774 45.942 46.074 46.219 46.36 46.51 46.67 46.822 46.965 47.135 47.247 47.39 47.498 47.63 47.783 47.902 47.951 47.98 47.963 47.936 47.938 47.921 47.904 47.886 47.872 47.837 47.773 47.733 47.706 47.696 47.688 47.669 47.639 47.626 47.651 47.591 47.656 47.676 47.622 47.618 47.581 47.574 47.569 47.585 47.608 47.601 47.715 47.668 47.885 47.99 47.953 48.116 48.248 48.426 48.512 48.695 48.769 48.914 49.052 49.127 49.268 49.473 49.54 49.718 49.913 50.012 50.081 50.239 50.338 50.55 50.596 50.712 50.869 51.007 51.172 51.297 51.465 51.674 51.857 51.92 52.061 52.199 52.454 52.491 52.536 52.539 52.635 52.565 52.602 52.609 52.615 52.653 52.635 52.639 52.658 52.683 52.676 52.685 52.66 52.658 52.686 52.67 52.661 52.659 52.653 52.72 52.661 52.666 52.662 52.66 52.665 52.685 52.683 52.665 52.669 52.607 52.639 52.622 52.609
51.59 51.6 51.618 51.643 51.641 51.651 51.655 51.644 51.651 51.659 51.645 51.674 51.678 51.683 51.676 51.68 51.681 51.689 51.701 51.72 51.734 51.745 51.758 51.776 51.787 51.812 51.803 51.823 51.832 51.832 51.843 51.865 51.887 51.899 51.902 51.913 51.923 51.923 51.918 51.904 51.893 51.892 51.887 51.883 51.862 51.829 51.795 51.752 51.75 51.75 51.731 51.761 51.9 51.846 51.813 51.791 51.785 51.787 51.803 51.796 51.804 51.793 51.793 51.796 51.771 51.726 51.696 51.636 51.636 51.599 51.61 51.602 51.61 51.613 51.595 51.6 51.603 51.611 51.667 51.713 51.784 51.805 52.086 51.96 52.046 52.212 52.425 52.688 52.751 52.878 52.944 53.049 53.059 53.045 53.068 53.093 53.101 53.114 53.128 53.143 53.165 53.172 53.178 53.194 53.173 53.18 53.17 53.184 53.175 53.206 53.241 53.254 53.267 53.284 53.298 53.313 53.333 53.339 53.36 53.362 53.374 53.398 53.427 53.554 53.689 53.898 54.202 54.211 54.226 54.184 54.156 54.206 54.222 54.187 54.066 54.081 54.099 54.105 54.094 54.079 54.077 54.083 54.081 54.033 53.972 53.917 53.839 53.832 53.826 53.751 53.726 53.691 53.709 53.706 53.636 53.554 53.67 53.473 53.256 53.215 53.14 53.143 53.176 53.1 53.068 52.98 52.959 52.954 52.947 52.901 52.967 52.883 52.78 52.578 52.231 51.855 51.63 51.29 51.045 50.782 50.592 50.406 50.264 50.002 49.819 49.813 49.689 49.413 48.95 48.635 48.425 48.329 48.332 48.11 48.106 48.066 48.057 48.02 48.006 47.968 48.074 47.964 47.882 47.432 47.063 46.888 47.047 46.962 46.542 46.235 46.199 45.052 44.168 43.081 42.909 42.54 42.318 41.975 42.02 41.877 41.761 41.591 43.159 43.245 43.035 41.612 41.606 41.545 41.481 41.589 41.535 41.352 41.321 41.323 41.299 41.222 41.258 41.202 41.239 41.256 41.308 41.347 41.383 41.45 41.463 41.45 41.507 41.586 41.526 41.565 41.562 41.554 41.552 41.525 41.487 41.45 41.468 41.516 41.588 41.686 41.699 41.732 41.796 41.82 41.911 41.942 44.512 44.75 44.77 45.403 45.254 45.258 46.191 46.045 45.978 46.453 46.786 47.057 47.741 47.838 47.97 47.989 48.418 48.024 48.56 48.509 48.085 47.337 44.957 44.806 45.013 45.082 45.193 45.28 45.367 45.523 45.651 45.856 45.981 46.139 46.289 46.435 46.57 46.694 46.823 46.961 47.102 47.249 47.435 47.574 47.729 47.877 47.962 47.994 48.007 47.983 47.97 47.954 47.941 47.923 47.88 47.856 47.794 47.785 47.755 47.722 47.716 47.731 47.692 47.655 47.623 47.628 47.605 47.676 47.714 47.68 47.67 47.674 47.589 47.574 47.614 47.624 47.641 47.647 47.736 47.931 47.981 47.995 48.207 48.435 48.443 48.537 48.717 48.871 48.943 49.132 49.213 49.367 49.52 49.715 49.802 49.943 50.035 50.185 50.318 50.446 50.574 50.676 50.898 50.993 51.13 51.236 51.377 51.572 51.714 51.92 52.021 52.212 52.266 52.388 52.485 52.519 52.604 52.764 52.592 52.599 52.613 52.628 52.638 52.633 52.66 52.683 52.681 52.69 52.687 52.683 52.667 52.681 52.685 52.675 52.669 52.684 52.701 52.693 52.694 52.692 52.686 52.707 52.671 52.649 52.655 52.665 52.632 52.618 52.634 52.631
51.621 51.617 51.643 51.642 51.659 51.668 51.675 51.681 51.675 51.676 51.682 51.693 51.699 51.712 51.692 51.704 51.708 51.707 51.726 51.729 51.751 51.761 51.782 51.805 51.806 51.821 51.825 51.853 51.861 51.897 51.874 51.882 51.923 51.922 51.921 51.931 51.928 51.931 51.94 51.932 51.916 51.907 51.916 51.913 51.886 51.854 51.822 51.787 51.773 51.775 51.749 51.774 51.898 51.869 51.854 51.822 51.818 51.828 51.848 51.828 51.836 51.831 51.801 51.818 51.775 51.759 51.72 51.696 51.673 51.647 51.655 51.651 51.656 51.656 51.634 51.622 51.625 51.631 51.666 51.701 51.742 51.824 51.91 51.954 51.983 52.153 52.308 52.685 52.73 52.83 52.937 53.039 53.08 53.095 53.092 53.089 53.106 53.122 53.133 53.179 53.184 53.183 53.199 53.208 53.201 53.186 53.182 53.196 53.208 53.213 53.237 53.238 53.267 53.31 53.306 53.312 53.331 53.333 53.347 53.365 53.384 53.389 53.452 53.598 53.795 53.961 54.126 54.153 54.187 54.137 54.089 54.171 54.181 54.174 54.142 54.095 54.129 54.101 54.131 54.119 54.106 54.094 54.09 54.05 54.01 54.012 53.945 53.887 53.886 53.866 53.81 53.741 53.732 53.74 53.706 53.624 53.529 53.388 53.267 53.186 53.099 53.088 53.042 53.078 52.983 52.926 52.922 52.951 53.01 52.839 53.078 52.88 52.529 52.284 51.968 51.744 51.373 51.031 50.851 50.497 50.209 50.558 50.223 49.697 49.618 49.692 49.283 48.973 48.818 48.487 48.358 48.578 48.291 48.1 48.118 48.07 48.083 48.038 48.012 48.036 48.653 47.981 47.882 47.578 47.064 46.863 46.722 46.481 46.854 46.065 45.073 44.417 43.669 42.792 42.512 42.437 42.011 41.916 41.995 42.357 44.315 44.289 43.805 44.262 44.217 41.62 41.574 41.5 41.51 41.555 41.496 41.248 41.247 41.355 41.318 41.283 41.272 41.239 41.271 41.318 41.353 41.398 41.469 41.481 41.529 41.52 41.548 41.607 41.674 41.562 41.569 41.532 41.52 41.525 41.519 41.51 41.499 41.558 41.615 41.669 41.694 41.74 41.782 41.839 41.912 44.189 44.797 44.863 44.927 46.522 46.279 46.45 46.767 45.993 46.94 46.453 46.913 47.759 48.19 48.645 49.038 48.526 48.453 48.551 48.756 48.813 49.232 45.159 45.114 45.344 45.411 45.388 45.463 45.454 45.592 45.69 45.82 45.949 46.056 46.175 46.325 46.508 46.61 46.775 46.902 47.006 47.181 47.303 47.485 47.625 47.764 47.896 47.97 48.003 48.007 47.999 47.975 47.935 47.966 47.914 47.891 47.894 47.813 47.795 47.771 47.76 47.725 47.735 47.681 47.682 47.638 47.623 47.646 47.68 47.693 47.692 47.682 47.629 47.615 47.589 47.619 47.724 47.718 47.795 47.847 47.866 47.962 48.079 48.295 48.347 48.496 48.653 48.827 49.03 49.173 49.221 49.405 49.572 49.608 49.765 49.86 49.999 50.132 50.248 50.386 50.525 50.677 50.75 50.912 51.157 51.193 51.471 51.528 51.613 51.797 51.928 51.986 52.114 52.348 52.447 52.459 52.531 52.557 52.613 52.623 52.617 52.635 52.659 52.652 52.667 52.665 52.691 52.687 52.689 52.705 52.692 52.689 52.698 52.705 52.687 52.69 52.692 52.711 52.697 52.691 52.692 52.69 52.715 52.695 52.674 52.938 52.692 52.653 52.691 52.634 52.691
51.64 51.653 51.657 51.658 51.673 51.675 51.689 51.705 51.699 51.701 51.703 51.711 51.715 51.719 51.717 51.724 51.735 51.742 51.754 51.772 51.769 51.786 51.813 51.828 51.843 51.858 51.86 51.866 51.878 51.897 51.885 51.907 51.922 51.94 51.952 51.963 51.959 51.963 51.963 51.956 51.933 51.935 51.932 51.946 51.92 51.881 51.84 51.813 51.792 51.786 51.796 51.812 51.854 51.899 51.869 51.854 51.832 51.856 51.873 51.856 51.876 51.858 51.819 51.841 51.788 51.778 51.752 51.69 51.714 51.704 51.705 51.697 51.693 51.695 51.667 51.647 51.647 51.641 51.689 51.727 51.754 51.894 52.348 51.969 51.992 52.111 52.316 52.513 52.647 52.784 52.971 53.082 53.096 53.11 53.118 53.1 53.109 53.116 53.12 53.158 53.189 53.187 53.192 53.198 53.193 53.189 53.187 53.203 53.22 53.225 53.237 53.255 53.311 53.311 53.324 53.317 53.318 53.336 53.33 53.379 53.408 53.417 53.45 53.622 53.811 54.052 54.173 54.177 54.078 53.973 53.966 54.11 54.084 54.1 54.088 54.074 54.114 54.157 54.152 54.103 54.077 54.091 54.087 54.023 54.017 54.017 53.987 53.951 53.956 53.922 53.875 53.856 53.757 53.748 53.723 53.728 53.673 53.514 53.321 53.176 53.057 52.971 53.103 53 52.948 52.894 52.902 52.86 52.884 52.802 53.074 52.727 52.303 51.923 51.808 51.519 51.013 50.749 50.584 50.168 49.972 49.711 49.694 49.54 49.4 49.201 49.049 48.783 48.503 48.415 48.316 48.258 48.117 48.104 48.122 48.083 48.095 48.036 47.999 48 48.31 47.917 47.847 47.228 46.991 46.832 46.495 46.395 46.224 46.111 44.211 44.046 43.47 42.62 42.256 42.108 42.027 41.957 42.197 44.109 44.693 44.808 44.869 44.836 44.795 44.229 41.532 41.492 41.44 41.299 41.175 41.202 41.235 41.293 41.376 41.258 41.267 41.331 41.344 41.37 41.434 41.476 41.502 41.573 41.561 41.554 41.571 41.604 41.643 41.583 41.546 41.553 41.55 41.548 41.542 41.522 41.577 41.572 41.645 41.685 41.722 41.736 41.832 41.868 42.325 44.127 44.896 44.993 45.869 46.618 47.23 47.248 47.39 47.428 47.308 47.257 47.344 48.233 49.489 48.901 48.929 48.42 48.443 48.928 48.995 48.953 49.039 45.121 45.284 45.407 45.481 45.551 45.809 46.121 46.107 45.942 46.013 46.116 46.188 46.295 46.423 46.534 46.671 46.802 46.954 47.086 47.197 47.363 47.551 47.71 47.864 47.939 48.009 48.044 48.032 47.997 47.984 47.966 47.934 47.915 47.917 47.904 47.842 47.803 47.788 47.758 47.763 47.742 47.753 47.707 47.626 47.608 47.668 47.692 47.659 47.661 47.69 47.705 47.628 47.609 47.679 47.712 47.763 47.76 47.761 47.953 48.036 48.181 48.326 48.4 48.657 48.745 48.907 49.098 49.203 49.317 49.434 49.607 49.722 49.838 49.914 50.112 50.201 50.3 50.891 50.725 50.706 50.871 51.021 51.186 51.312 51.703 51.703 51.719 51.87 51.96 52.093 52.267 52.466 52.545 52.516 52.467 52.579 52.613 52.64 52.673 52.709 52.676 52.673 52.736 52.692 52.703 52.691 52.704 52.738 52.717 52.734 52.716 52.721 52.712 52.707 52.702 52.707 52.679 52.695 52.697 52.728 52.706 52.702 52.709 52.735 52.68 52.687 52.768 52.652 52.652
51.667 51.664 51.665 51.674 51.686 51.709 51.713 51.719 51.725 51.726 51.728 51.731 51.728 51.734 51.732 51.747 51.762 51.771 51.774 51.795 51.786 51.823 51.84 51.861 51.852 51.883 51.868 51.896 51.891 51.901 51.923 51.926 51.952 51.957 51.974 51.975 51.981 51.982 51.98 51.974 51.957 51.947 51.954 51.966 51.964 51.916 51.883 51.844 51.815 51.813 51.807 51.815 51.85 51.898 51.892 51.88 51.85 51.886 51.905 51.888 51.912 51.908 51.868 51.856 51.833 51.819 51.811 51.767 51.744 51.763 51.744 51.746 51.729 51.733 51.713 51.678 51.668 51.694 51.689 51.733 51.783 51.859 52.057 51.984 52.004 52.113 52.372 52.61 52.742 52.895 53.256 53.77 53.722 53.121 53.131 53.105 53.085 53.1 53.121 53.13 53.168 53.184 53.201 53.157 53.182 53.15 53.163 53.215 53.227 53.239 53.256 53.302 53.313 53.326 53.314 53.322 53.321 53.327 53.332 53.339 53.408 53.415 53.46 53.63 53.775 53.958 54.085 54.119 54.012 53.98 53.967 54.085 54.098 54.097 54.073 54.118 54.134 54.169 54.149 54.107 54.071 54.092 54.06 54.067 54.038 54.002 54.01 53.991 53.971 53.947 53.988 53.856 53.827 53.748 53.733 53.752 53.754 53.647 53.433 53.215 53.024 52.928 52.901 52.861 52.888 52.788 52.824 52.733 52.796 53.014 52.437 52.373 52.215 51.681 51.482 51.048 50.613 50.417 50.201 49.908 49.652 49.599 49.927 49.331 49.137 48.966 48.724 48.51 48.375 48.295 48.276 48.161 48.122 48.144 48.106 48.095 48.074 48.032 48.034 47.986 47.954 47.912 47.556 47.144 46.897 46.699 46.388 46.239 46.172 46.036 44.001 43.714 43.138 42.359 42.119 42.132 42.157 42.233 43.673 44.577 44.79 44.596 44.877 45.043 44.94 44.721 41.604 41.477 41.295 41.182 41.174 41.214 41.21 41.266 41.32 41.317 41.33 41.362 41.369 41.441 41.483 41.556 41.578 41.585 41.593 41.573 41.576 41.609 41.613 41.57 41.572 41.576 41.563 41.59 41.56 41.588 41.569 41.576 41.629 41.707 41.764 41.802 41.855 45.131 45.344 44.862 46.355 46.338 47.386 47.138 47.234 47.269 47.467 47.958 47.712 47.891 47.73 48.353 49.351 49.026 48.799 48.844 49.215 49.266 49.2 49.045 49.117 45.285 45.396 45.427 45.782 45.761 46.089 46.089 46.182 46.394 46.361 46.415 46.464 46.509 46.588 46.708 46.827 46.939 47.04 47.185 47.263 47.413 47.583 47.755 47.9 47.999 48.025 48.022 48.02 48.011 48.009 47.976 47.94 47.961 47.966 47.879 47.866 47.83 47.81 47.777 47.771 47.741 47.728 47.679 47.643 47.68 47.736 47.709 47.744 47.764 47.764 47.74 47.668 47.677 47.701 47.744 47.739 47.813 47.878 47.96 48.09 48.219 48.378 48.487 48.67 48.856 48.981 49.118 49.228 49.411 49.581 49.674 49.79 49.899 50.082 50.185 50.299 50.44 50.651 50.655 50.85 50.967 51.119 51.212 51.415 51.606 51.721 51.791 51.988 52.021 52.185 52.345 52.493 52.582 52.586 52.484 52.554 52.607 52.643 52.671 52.685 52.715 52.7 52.729 52.729 52.734 52.72 52.735 52.749 52.753 52.756 52.745 52.749 52.787 52.743 52.723 52.716 52.701 52.692 52.709 52.764 52.752 52.738 52.718 52.73 52.698 52.751 52.703 52.679 52.676
51.685 51.685 51.69 51.696 51.695 51.719 51.728 51.724 51.73 51.747 51.753 51.748 51.746 51.761 51.744 51.768 51.782 51.792 51.798 51.827 51.842 51.84 51.867 51.883 51.875 51.882 51.899 51.914 51.915 51.932 51.945 51.954 51.979 51.984 51.985 52 52 52.008 51.995 51.998 51.986 51.98 51.979 51.978 51.983 51.937 51.92 51.878 51.84 51.835 51.826 51.821 51.869 51.931 51.905 51.883 51.867 51.92 51.938 51.918 51.936 51.93 51.906 51.899 51.879 51.859 51.846 51.84 51.801 51.813 51.821 51.804 51.78 51.749 51.739 51.723 51.711 51.739 51.715 51.762 51.807 51.855 51.937 51.977 52.028 52.136 52.418 52.649 52.86 53.011 53.076 54.104 53.771 53.145 53.132 53.084 53.094 53.111 53.119 53.15 53.167 53.181 53.174 53.162 53.158 53.15 53.183 53.226 53.249 53.254 53.283 53.344 53.336 53.328 53.325 53.329 53.316 53.328 53.335 53.331 53.376 53.443 53.487 53.629 53.772 53.884 53.974 54.003 54.015 54 53.99 54.079 54.085 54.102 54.076 54.123 54.12 54.121 54.124 54.105 54.074 54.078 54.073 54.021 54.048 54.001 54.02 53.973 53.997 53.943 53.948 53.887 53.875 53.811 53.79 53.792 53.763 53.685 53.532 53.251 53.041 52.906 52.828 52.8 52.846 52.735 52.699 52.575 52.902 52.783 52.278 52.263 51.685 51.445 51.042 50.768 50.465 50.159 49.992 49.682 49.511 49.238 49.299 48.973 48.861 48.676 48.64 48.451 48.292 48.255 48.224 48.141 48.128 48.132 48.121 48.127 48.075 48.042 48.024 47.994 47.966 47.877 47.387 47.174 46.766 46.524 46.252 46.098 46.088 45.892 43.959 43.297 42.71 42.165 42.088 42.334 42.205 42.728 43.265 44.172 44.869 44.956 45.001 45.2 45.205 44.918 43.069 41.444 41.187 41.146 41.201 41.249 41.294 41.325 41.334 41.324 41.364 41.385 41.457 41.523 41.603 41.6 41.599 41.606 41.622 41.619 41.617 41.61 41.598 41.609 41.616 41.588 41.589 41.556 41.579 41.532 41.577 41.612 41.674 41.715 41.813 41.877 43.758 45.13 46.06 45.965 46.519 46.848 47.54 47.254 47.319 47.271 47.116 47.927 48.05 48.108 47.902 49.343 49.683 49.516 49.111 48.791 49.356 49.536 49.228 49.109 49.124 45.177 45.494 45.731 45.752 46.074 46.029 46.154 46.217 46.43 46.466 46.672 46.828 46.928 46.996 47.157 47.031 47.172 47.28 47.376 47.474 47.564 47.712 47.837 47.944 48.015 48.04 48.04 48.025 48.047 48.011 47.984 47.978 47.959 47.903 47.869 47.844 47.837 47.809 47.79 47.771 47.753 47.733 47.701 47.692 47.71 47.696 47.759 47.769 47.818 47.81 47.797 47.796 47.718 47.734 47.808 47.755 47.919 47.952 48.028 48.112 48.193 48.413 48.57 48.767 49.079 49.203 49.195 49.317 49.584 49.645 49.789 49.889 50.045 50.142 50.351 50.411 50.528 50.631 50.802 50.944 51.096 51.174 51.33 51.519 51.608 51.724 51.865 51.987 52.157 52.377 52.395 52.492 52.597 52.627 52.632 52.629 52.595 52.65 52.684 52.707 52.73 52.736 52.735 52.752 52.73 52.742 52.798 52.762 52.775 52.783 52.763 52.768 52.773 52.75 52.739 52.746 52.747 52.764 52.722 52.724 52.74 52.74 52.727 52.746 52.768 53.067 52.735 52.692 52.682
51.709 51.692 51.701 51.714 51.727 51.737 51.754 51.75 51.744 51.749 51.765 51.769 51.765 51.784 51.768 51.793 51.797 51.815 51.819 51.848 51.859 51.864 51.885 51.903 51.899 51.916 51.912 51.929 51.919 51.942 51.968 51.981 51.993 51.995 51.996 52.009 52.021 52.016 52.019 52.018 52.008 52.002 52.018 52.007 52.005 51.966 51.943 51.892 51.856 51.853 51.849 51.841 51.896 51.943 51.919 51.899 51.878 51.931 51.95 51.928 51.947 51.963 51.912 51.919 51.909 51.894 51.893 51.871 51.853 51.849 51.861 51.841 51.83 51.797 51.777 51.784 51.753 51.755 51.756 51.798 51.83 51.869 51.971 51.995 52.063 52.18 52.375 52.604 52.814 52.949 53.063 53.803 53.598 53.147 53.143 53.096 53.1 53.111 53.116 53.142 53.167 53.169 53.154 53.154 53.149 53.176 53.201 53.24 53.268 53.307 53.362 53.326 53.325 53.332 53.335 53.334 53.329 53.33 53.341 53.36 53.383 53.45 53.494 53.603 53.742 53.858 53.922 53.932 53.977 53.981 54.008 54.143 54.098 54.142 54.116 54.117 54.082 54.099 54.088 54.059 54.07 54.061 54.044 54.022 54.032 54.045 54.026 53.962 53.96 53.977 53.922 53.916 54.123 53.866 53.825 53.805 53.768 53.718 53.618 53.343 53.109 52.973 52.826 52.794 52.659 52.601 52.528 52.374 52.195 52.05 52.001 51.621 51.453 51.17 50.769 50.507 50.152 49.838 49.66 49.436 49.272 49.031 48.977 48.729 48.622 48.486 48.418 48.335 48.319 48.227 48.168 48.151 48.151 48.262 48.215 48.12 48.062 48.018 48.014 47.991 47.978 47.651 47.425 47.172 46.804 46.364 46.131 45.965 45.839 44.614 43.764 43.158 42.642 42.036 41.995 42.481 43.01 42.433 42.796 43.793 44.495 44.815 44.655 45.013 45.237 42.029 41.76 41.562 41.201 41.245 41.256 41.229 41.277 41.324 41.345 41.368 41.414 41.492 41.537 41.59 41.699 41.627 41.623 41.951 41.848 41.644 41.633 41.629 41.638 41.639 41.623 41.625 41.578 41.566 41.579 41.649 41.634 43.993 41.802 41.793 42.048 43.702 44.903 45.084 45.916 46.507 46.673 47.381 47.864 47.989 47.286 47.277 47.752 48.948 48.558 48.416 48.877 49.236 49.526 49.49 49.414 49.206 49.241 49.236 48.992 48.976 48.906 45.814 45.693 45.803 46 45.935 46.117 46.683 46.42 46.512 46.733 46.822 46.947 47.253 47.2 47.341 47.467 47.537 47.652 47.779 47.801 47.769 47.847 47.948 48.024 48.053 48.062 48.071 48.062 48.033 48.017 47.994 48.022 47.959 47.926 47.869 47.835 47.825 47.809 47.802 47.886 47.742 47.753 47.701 47.727 47.71 47.711 47.765 47.832 47.796 47.767 47.761 47.746 47.718 47.657 47.856 47.757 47.951 48.048 48.116 48.197 48.357 48.439 48.653 48.804 49.015 49.18 49.261 49.385 49.653 49.755 49.839 50.017 50.12 50.251 50.356 50.505 50.603 50.759 50.914 51.019 51.124 51.28 51.409 51.571 51.675 51.824 52.022 52.097 52.223 52.425 52.453 52.592 52.655 52.681 52.677 52.672 52.632 52.656 52.699 52.715 52.751 52.788 52.754 52.775 52.75 52.772 52.791 52.792 52.786 52.794 52.785 52.779 52.779 52.767 52.759 52.738 52.77 52.759 52.744 52.729 52.745 52.752 52.741 52.771 52.723 52.949 52.755 52.705 52.729
51.716 51.713 51.718 51.727 51.756 51.764 51.772 51.771 51.773 51.781 51.786 51.785 51.789 51.802 51.79 51.814 51.824 51.846 51.859 51.873 51.886 51.905 51.908 51.922 51.934 51.944 51.944 51.955 51.97 51.984 51.988 52.01 52.013 52.021 52.022 52.044 52.04 52.04 52.044 52.045 52.037 52.029 52.039 52.033 52.03 51.99 51.962 51.929 51.87 51.872 51.86 51.864 51.903 51.947 51.951 51.944 51.904 51.947 51.957 51.94 51.959 51.973 51.94 51.95 51.939 51.911 51.94 51.907 51.886 51.901 51.909 51.891 51.876 51.837 51.814 51.796 51.78 51.796 51.786 51.822 51.863 51.909 52.003 52.01 52.134 52.213 52.394 52.531 52.697 52.835 53.035 53.11 53.128 53.129 53.108 53.119 53.104 53.119 53.125 53.148 53.164 53.138 53.136 53.135 53.157 53.201 53.208 53.267 53.319 53.337 53.338 53.34 53.354 53.347 53.34 53.359 53.358 53.334 53.365 53.398 53.426 53.464 53.522 53.603 53.68 53.829 53.882 53.899 53.953 53.976 54.013 54.068 54.096 54.106 54.171 54.23 54.059 54.109 54.09 54.038 54.054 54.039 54.162 54.086 54.003 54.015 54.034 54.033 53.964 53.945 53.935 53.908 53.95 53.894 53.808 53.852 53.799 53.734 53.64 53.42 53.178 52.999 52.786 52.661 52.573 52.56 52.333 52.128 51.97 51.739 51.478 51.312 51.087 50.882 50.59 50.228 49.847 49.631 49.462 49.607 49.023 48.94 48.794 48.549 48.417 48.401 48.422 48.518 48.286 48.214 48.189 48.178 48.18 48.292 48.192 48.152 48.068 48.026 47.996 47.994 47.95 47.69 47.471 47.282 46.905 46.104 45.943 45.864 45.407 44.154 43.512 43.063 42.558 42.04 42.037 42.571 43.636 43.744 43.732 43.967 43.996 44.626 44.702 43.769 42.032 41.804 41.601 41.307 41.264 41.251 41.286 41.288 41.38 41.367 41.424 41.483 41.512 41.553 41.599 41.617 41.825 41.684 41.675 41.661 41.661 41.669 41.636 41.661 41.69 41.647 41.631 41.578 41.58 41.629 41.673 43.22 44.386 43.913 43.742 43.881 44.319 44.877 44.888 45.882 46.157 46.243 46.71 47.155 47.345 47.715 47.906 48.007 48.669 48.55 48.529 48.637 48.738 49.122 49.63 49.459 49.328 49.65 48.874 49.48 49.14 48.837 45.675 45.893 45.883 45.909 46.252 46.116 46.618 46.644 46.587 46.685 46.827 46.978 47.711 47.369 47.457 47.569 47.565 47.754 47.953 48.013 48.033 48.096 48.13 48.087 48.105 48.117 48.101 48.075 48.079 48.057 48.048 48.014 48.006 47.969 47.918 47.87 47.901 47.88 47.83 47.944 48.019 47.847 47.748 47.754 47.747 47.738 47.708 47.738 47.756 47.776 47.764 47.79 47.738 47.688 47.94 48.156 47.82 47.905 48.133 48.27 48.35 48.425 48.587 48.698 48.8 49.287 49.271 49.407 49.566 49.646 49.783 49.926 50.108 50.218 50.385 50.432 50.57 50.743 50.808 50.933 51.101 51.243 51.381 51.511 51.637 51.771 51.934 52.082 52.197 52.392 52.433 52.489 52.591 52.651 52.662 52.702 52.768 52.727 52.692 52.735 52.748 52.759 52.749 52.774 52.792 52.785 52.789 52.786 52.796 52.802 52.792 52.797 52.803 52.811 52.8 52.776 52.757 52.751 52.751 52.751 52.835 52.749 52.751 52.763 52.742 52.738 52.735 52.728 52.737 52.722
51.731 51.749 51.732 51.743 51.801 51.791 51.788 51.803 51.821 51.808 51.8 51.804 51.817 51.824 51.819 51.836 51.841 51.872 51.857 51.891 51.91 51.943 51.95 51.964 51.962 51.973 51.976 51.974 51.993 52.003 52 52.036 52.036 52.055 52.042 52.052 52.061 52.068 52.068 52.067 52.057 52.059 52.031 52.044 52.053 52.015 51.985 51.96 51.902 51.894 51.891 51.891 51.914 51.969 51.964 51.964 51.931 51.961 51.968 51.96 51.973 51.997 51.975 51.97 51.973 51.945 51.96 51.946 51.939 51.925 51.909 51.92 51.908 51.871 51.846 51.825 51.795 51.807 51.823 51.84 51.902 51.941 51.985 52.103 52.301 52.261 52.426 52.526 52.623 52.751 52.893 53.017 53.068 53.094 53.108 53.097 53.095 53.097 53.12 53.135 53.145 53.138 53.141 53.155 53.185 53.215 53.26 53.317 53.333 53.335 53.352 53.358 53.362 53.36 53.352 53.369 53.369 53.373 53.391 53.436 53.469 53.511 53.571 53.627 53.688 53.818 53.842 53.877 53.959 53.97 54.037 54.072 54.069 54.084 54.16 54.135 54.086 54.092 54.145 54.056 54.06 54.049 54.089 54.033 54.074 54.014 54.013 54.094 53.901 53.982 53.947 53.954 53.923 54.086 53.848 53.854 54.031 53.695 53.631 53.461 53.282 53.181 52.778 52.584 52.496 52.334 52.101 51.894 51.724 51.525 51.316 51.08 50.913 50.611 50.261 50.041 49.658 49.434 49.18 48.93 48.863 48.83 48.543 48.398 48.452 48.937 48.911 48.401 48.258 48.287 48.201 48.251 48.248 48.244 48.187 48.098 48.057 48.057 48.042 48.007 47.977 47.894 48.005 47.446 46.622 45.953 45.809 45.69 44.775 43.921 43.397 42.638 42.3 42.281 42.193 41.923 43.583 44.204 44.19 44.2 43.879 44.299 41.973 41.759 41.387 41.385 41.314 41.236 41.25 41.276 41.299 41.33 41.377 41.408 41.447 41.53 41.575 41.619 41.627 41.646 41.687 41.683 41.682 41.665 41.659 41.661 41.682 41.699 41.655 41.654 41.654 41.733 41.868 41.694 41.729 43.533 44.703 44.731 44.783 44.932 44.752 45.145 46.324 46.756 46.714 46.777 46.913 47.289 47.559 47.732 48.005 48.141 48.435 48.465 48.118 48.588 48.873 49.445 49.734 49.909 49.339 49.314 49.646 49.695 49.51 49.749 49.69 45.937 46.025 46.249 46.327 46.461 46.547 46.609 46.722 46.904 47.1 47.341 47.971 47.602 47.668 47.678 47.726 47.856 48.058 48.123 48.135 48.174 48.236 48.205 48.153 48.102 48.098 48.099 48.087 48.056 48.08 48.065 48.015 47.969 47.935 47.908 47.903 47.869 47.845 47.917 47.922 47.772 47.766 47.747 47.763 47.785 47.749 47.839 47.778 47.762 47.765 47.806 47.762 47.775 47.751 47.899 47.849 47.985 48.155 48.396 48.396 48.509 48.64 48.879 48.912 49.366 49.333 49.302 49.537 49.71 49.837 50.046 50.145 50.342 50.415 50.54 50.665 50.853 50.934 51.094 51.306 51.391 51.524 51.661 51.908 51.912 52.034 52.123 52.297 52.449 52.463 52.539 52.604 52.655 52.668 52.713 52.753 52.763 52.744 52.763 52.785 52.772 52.774 52.804 52.826 52.816 52.801 52.801 52.829 52.805 52.806 52.811 52.818 52.824 52.815 52.797 52.784 52.804 52.759 52.762 52.915 52.771 52.824 52.794 52.776 52.742 52.742 52.731 52.742 52.736
