53.370 53.402 53.434 53.466 53.499 53.531 53.563 53.595 53.627 53.604 53.606 53.610 53.609 53.612 53.617 53.625 53.626 53.621 53.618 53.618 53.611 53.612 53.606 53.604 53.605 53.604 53.609 53.607 53.607 53.608 53.609 53.607 53.606 53.602 53.601 53.603 53.606 53.613 53.619 53.622 53.628 53.636 53.642 53.653 53.664 53.667 53.667 53.670 53.669 53.665 53.666 53.665 53.656 53.650 53.645 53.635 53.625 53.619 53.613 53.606 53.598 53.598 53.587 53.588 53.596 53.592 53.591 53.590 53.588 53.590 53.602 53.610 53.611 53.607 53.598 53.589 53.578 53.566 53.557 53.550 53.546 53.542 53.532 53.528 53.541 53.551 53.556 53.555 53.544 53.543 53.546 53.546 53.547 53.546 53.547 53.550 53.554 53.556 53.556 53.559 53.564 53.567 53.569 53.568 53.569 53.569 53.573 53.568 53.563 53.569 53.572 53.571 53.570 53.575 53.570 53.573 53.587 53.590 53.591 53.592 53.595 53.603 53.612 53.635 53.630 53.623 53.629 53.628 53.627 53.633 53.640 53.638 53.647 53.678 53.695 53.711 53.710 53.713 53.706 53.683 53.665 53.684 53.698 53.705 53.705 53.701 53.712 53.728 53.727 53.719 53.763 53.797 53.806 53.802 53.738 53.690 53.687 53.702 53.711 53.714 53.720 53.722 53.725 53.731 53.735 53.749 53.739 53.740 53.739 53.746 53.742 53.744 53.739 53.744 53.745 53.744 53.744 53.745 53.745 53.751 53.766 53.764 53.763 53.772 53.789 53.827 53.884 53.914 53.915 53.926 53.934 53.943 53.963 53.993 54.007 54.041 54.082 54.130 54.187 54.251 54.310 54.393 54.486 54.516 54.568 54.603 54.623 54.666 54.727 54.768 54.790 54.820 54.838 54.850 54.844 54.845 54.844 54.846 54.856 54.895 54.950 54.958 54.964 54.965 54.931 54.941 54.923 54.963 54.978 54.965 54.934 54.908 54.763 54.722 54.659 54.667 54.647 54.613 54.586 54.575 54.572 54.561 54.550 54.548 54.548 54.546 54.545 54.545 54.548 54.548 54.545 54.542 54.541 54.536 54.529 54.514 54.513 54.503 54.497 54.488 54.485 54.484 54.480 54.487 54.502 54.508 54.523 54.532 54.531 54.536 54.538 54.538 54.543 54.549 54.553 54.560 54.565 54.571 54.575 54.567 54.561 54.561 54.562 54.560 54.560 54.558 54.554 54.549 54.551 54.555 54.558 54.559 54.559 54.565 54.576 54.590 54.585 54.574 54.565 54.618 54.604 54.602 54.608 54.592 54.559 54.548 54.613 54.636 54.672 54.740 54.771 54.811 54.891 54.930 54.906 54.891 54.946 54.969 55.014 55.033 55.042 55.082 55.109 55.146 55.197 55.245 55.325 55.379 55.416 55.504 55.533 55.560 55.585 55.595 55.654 55.635 55.572 55.554 55.571 55.573 55.527 55.509 55.517 55.521 55.546 55.616 55.652 55.664 55.632 55.571 55.558 55.517 55.464 55.432 55.366 55.328 55.001 54.999 54.997 54.994 54.992 54.990 54.988 54.985 54.983 54.981
53.374 53.405 53.437 53.468 53.500 53.531 53.563 53.594 53.625 53.598 53.602 53.606 53.609 53.611 53.615 53.618 53.619 53.619 53.616 53.613 53.609 53.607 53.607 53.608 53.606 53.604 53.606 53.605 53.608 53.609 53.608 53.605 53.605 53.605 53.604 53.603 53.605 53.617 53.626 53.627 53.626 53.633 53.641 53.651 53.662 53.666 53.664 53.666 53.666 53.663 53.664 53.658 53.651 53.642 53.640 53.633 53.623 53.617 53.610 53.608 53.603 53.588 53.578 53.582 53.586 53.582 53.584 53.587 53.585 53.594 53.603 53.607 53.605 53.601 53.591 53.585 53.574 53.563 53.554 53.548 53.539 53.536 53.531 53.528 53.544 53.554 53.556 53.548 53.541 53.544 53.547 53.545 53.546 53.546 53.547 53.553 53.556 53.556 53.556 53.560 53.567 53.569 53.569 53.569 53.573 53.573 53.573 53.569 53.564 53.568 53.571 53.569 53.572 53.575 53.568 53.575 53.588 53.590 53.590 53.595 53.596 53.601 53.608 53.641 53.644 53.621 53.623 53.641 53.641 53.626 53.640 53.651 53.655 53.676 53.705 53.710 53.710 53.723 53.712 53.702 53.675 53.688 53.681 53.676 53.679 53.674 53.685 53.724 53.765 53.744 53.754 53.773 53.788 53.791 53.711 53.680 53.683 53.703 53.715 53.719 53.724 53.731 53.739 53.749 53.746 53.778 53.754 53.749 53.740 53.755 53.746 53.747 53.748 53.748 53.732 53.732 53.739 53.739 53.744 53.755 53.753 53.761 53.765 53.771 53.791 53.837 53.883 53.898 53.907 53.911 53.930 53.960 53.978 53.991 54.008 54.045 54.087 54.123 54.192 54.252 54.337 54.387 54.459 54.517 54.621 54.618 54.636 54.671 54.706 54.752 54.800 54.822 54.834 54.839 54.825 54.832 54.850 54.844 54.880 54.864 54.924 54.982 54.995 54.954 54.925 54.932 54.940 54.957 54.949 54.928 54.888 54.709 54.691 54.664 54.644 54.634 54.614 54.594 54.577 54.567 54.557 54.548 54.543 54.539 54.539 54.539 54.541 54.538 54.539 54.539 54.541 54.535 54.536 54.533 54.521 54.509 54.513 54.502 54.493 54.478 54.456 54.458 54.460 54.476 54.493 54.500 54.517 54.523 54.528 54.533 54.527 54.532 54.539 54.545 54.550 54.560 54.566 54.570 54.568 54.561 54.557 54.560 54.558 54.556 54.559 54.552 54.548 54.546 54.542 54.548 54.554 54.555 54.558 54.561 54.571 54.583 54.590 54.577 54.563 54.561 54.641 54.626 54.652 54.617 54.574 54.553 54.593 54.638 54.708 54.731 54.754 54.769 54.869 54.928 54.911 54.877 54.922 54.909 54.961 55.007 55.003 55.026 55.049 55.116 55.185 55.215 55.299 55.341 55.363 55.395 55.487 55.491 55.511 55.542 55.560 55.584 55.498 55.461 55.458 55.444 55.435 55.440 55.467 55.479 55.491 55.573 55.621 55.613 55.575 55.540 55.522 55.477 55.423 55.388 55.345 55.323 54.997 54.995 54.993 54.990 54.988 54.986 54.984 54.981 54.979 54.977
53.377 53.408 53.439 53.470 53.501 53.532 53.563 53.593 53.624 53.595 53.599 53.606 53.609 53.611 53.612 53.614 53.615 53.613 53.611 53.607 53.606 53.603 53.607 53.613 53.610 53.608 53.610 53.607 53.609 53.613 53.610 53.611 53.605 53.606 53.605 53.603 53.602 53.620 53.638 53.626 53.625 53.632 53.640 53.647 53.655 53.662 53.663 53.666 53.664 53.661 53.662 53.655 53.648 53.643 53.637 53.627 53.619 53.617 53.603 53.596 53.596 53.581 53.576 53.578 53.579 53.579 53.576 53.577 53.583 53.594 53.602 53.607 53.603 53.595 53.583 53.576 53.568 53.560 53.552 53.546 53.535 53.533 53.526 53.530 53.545 53.553 53.558 53.548 53.540 53.544 53.548 53.545 53.544 53.544 53.548 53.552 53.554 53.556 53.556 53.559 53.570 53.571 53.571 53.573 53.575 53.574 53.569 53.568 53.566 53.571 53.574 53.569 53.571 53.577 53.571 53.575 53.588 53.589 53.589 53.595 53.599 53.600 53.603 53.614 53.620 53.620 53.625 53.641 53.642 53.622 53.623 53.626 53.648 53.687 53.718 53.705 53.720 53.698 53.707 53.686 53.667 53.699 53.697 53.692 53.700 53.707 53.704 53.717 53.707 53.716 53.736 53.727 53.740 53.728 53.690 53.685 53.680 53.700 53.712 53.721 53.725 53.732 53.747 53.759 53.766 53.778 53.757 53.756 53.749 53.756 53.747 53.741 53.761 53.742 53.730 53.730 53.733 53.744 53.753 53.776 53.755 53.758 53.768 53.776 53.797 53.828 53.862 53.885 53.904 53.908 53.943 53.972 53.988 54.014 54.053 54.064 54.084 54.123 54.197 54.288 54.314 54.358 54.444 54.524 54.592 54.643 54.653 54.672 54.707 54.780 54.809 54.825 54.829 54.832 54.813 54.862 54.842 54.836 54.862 54.887 54.895 54.942 55.015 55.012 54.937 54.935 54.936 54.947 54.936 54.907 54.853 54.796 54.719 54.672 54.652 54.645 54.617 54.583 54.575 54.563 54.549 54.540 54.533 54.530 54.529 54.532 54.532 54.530 54.531 54.532 54.529 54.530 54.531 54.528 54.519 54.509 54.497 54.493 54.481 54.467 54.448 54.449 54.460 54.477 54.489 54.497 54.510 54.516 54.522 54.525 54.523 54.529 54.533 54.545 54.551 54.554 54.557 54.564 54.560 54.554 54.555 54.554 54.553 54.553 54.552 54.546 54.538 54.541 54.540 54.541 54.546 54.552 54.555 54.561 54.566 54.568 54.568 54.577 54.578 54.572 54.609 54.637 54.645 54.630 54.600 54.571 54.656 54.689 54.733 54.760 54.800 54.814 54.882 54.918 54.946 54.934 54.887 54.872 54.872 54.913 54.950 54.984 55.013 55.074 55.140 55.177 55.237 55.290 55.319 55.352 55.409 55.445 55.440 55.470 55.490 55.509 55.400 55.396 55.384 55.374 55.383 55.385 55.394 55.433 55.468 55.508 55.547 55.544 55.522 55.502 55.468 55.428 55.379 55.338 55.325 55.323 54.993 54.991 54.989 54.986 54.984 54.982 54.979 54.977 54.975 54.972
53.380 53.411 53.441 53.472 53.502 53.532 53.563 53.593 53.623 53.588 53.596 53.603 53.606 53.610 53.610 53.611 53.611 53.609 53.607 53.603 53.600 53.599 53.603 53.611 53.614 53.609 53.611 53.609 53.608 53.605 53.602 53.603 53.604 53.604 53.603 53.601 53.601 53.611 53.619 53.617 53.624 53.632 53.635 53.641 53.650 53.656 53.660 53.665 53.663 53.661 53.662 53.659 53.652 53.645 53.634 53.623 53.617 53.607 53.599 53.589 53.586 53.578 53.575 53.574 53.572 53.572 53.575 53.577 53.585 53.594 53.600 53.600 53.592 53.579 53.574 53.569 53.565 53.558 53.550 53.542 53.533 53.533 53.531 53.537 53.545 53.564 53.557 53.547 53.540 53.545 53.546 53.543 53.543 53.543 53.548 53.552 53.554 53.558 53.560 53.563 53.573 53.577 53.577 53.575 53.575 53.573 53.571 53.571 53.568 53.568 53.569 53.567 53.570 53.574 53.570 53.576 53.590 53.589 53.589 53.593 53.595 53.598 53.605 53.611 53.617 53.624 53.630 53.632 53.631 53.635 53.629 53.631 53.638 53.689 53.736 53.702 53.705 53.695 53.682 53.670 53.671 53.679 53.682 53.690 53.717 53.733 53.749 53.753 53.715 53.720 53.756 53.742 53.731 53.720 53.679 53.691 53.698 53.710 53.724 53.728 53.731 53.735 53.755 53.752 53.746 53.758 53.747 53.755 53.747 53.749 53.745 53.745 53.766 53.742 53.736 53.736 53.737 53.758 53.752 53.767 53.755 53.753 53.774 53.781 53.802 53.825 53.862 53.891 53.904 53.918 53.944 53.960 53.976 54.022 54.051 54.066 54.095 54.124 54.207 54.292 54.326 54.361 54.418 54.530 54.603 54.618 54.641 54.674 54.718 54.794 54.805 54.813 54.825 54.835 54.813 54.844 54.838 54.822 54.817 54.852 54.832 54.871 54.987 55.014 54.994 54.946 54.928 54.916 54.889 54.893 54.840 54.796 54.743 54.711 54.667 54.662 54.631 54.587 54.569 54.553 54.538 54.531 54.526 54.524 54.523 54.523 54.524 54.525 54.526 54.525 54.523 54.524 54.527 54.520 54.509 54.492 54.483 54.476 54.458 54.452 54.447 54.445 54.457 54.481 54.484 54.497 54.505 54.510 54.518 54.520 54.521 54.525 54.534 54.544 54.548 54.551 54.554 54.552 54.548 54.546 54.547 54.548 54.547 54.548 54.546 54.537 54.536 54.544 54.538 54.542 54.540 54.544 54.549 54.553 54.557 54.576 54.580 54.585 54.584 54.587 54.594 54.638 54.649 54.657 54.678 54.681 54.724 54.724 54.855 54.836 54.822 54.800 54.850 54.876 54.921 54.943 54.878 54.854 54.850 54.855 54.881 54.931 54.964 55.027 55.085 55.130 55.176 55.226 55.270 55.289 55.343 55.360 55.370 55.361 55.326 55.313 55.320 55.332 55.321 55.322 55.318 55.328 55.345 55.363 55.427 55.468 55.493 55.469 55.471 55.461 55.396 55.362 55.325 55.309 55.313 55.349 54.989 54.987 54.985 54.982 54.980 54.978 54.975 54.973 54.971 54.968
53.384 53.414 53.444 53.473 53.503 53.533 53.563 53.592 53.622 53.584 53.589 53.597 53.603 53.606 53.609 53.608 53.608 53.610 53.607 53.603 53.599 53.598 53.600 53.606 53.612 53.609 53.613 53.608 53.604 53.599 53.598 53.603 53.604 53.602 53.600 53.598 53.597 53.603 53.610 53.617 53.623 53.629 53.633 53.638 53.646 53.651 53.659 53.664 53.662 53.661 53.664 53.665 53.661 53.646 53.635 53.624 53.615 53.606 53.600 53.589 53.584 53.579 53.576 53.571 53.566 53.569 53.573 53.579 53.586 53.593 53.599 53.593 53.582 53.576 53.566 53.563 53.559 53.555 53.545 53.542 53.535 53.533 53.532 53.537 53.547 53.558 53.556 53.546 53.541 53.542 53.542 53.540 53.541 53.543 53.545 53.550 53.555 53.558 53.559 53.566 53.571 53.578 53.578 53.577 53.576 53.571 53.567 53.569 53.569 53.566 53.567 53.569 53.570 53.569 53.566 53.576 53.586 53.585 53.588 53.592 53.595 53.600 53.605 53.615 53.623 53.624 53.626 53.627 53.651 53.668 53.640 53.642 53.660 53.676 53.708 53.724 53.693 53.686 53.674 53.668 53.687 53.690 53.686 53.693 53.700 53.742 53.772 53.783 53.757 53.741 53.759 53.741 53.750 53.687 53.676 53.694 53.710 53.717 53.726 53.739 53.751 53.737 53.755 53.763 53.743 53.757 53.749 53.745 53.741 53.751 53.749 53.742 53.747 53.735 53.743 53.750 53.751 53.741 53.747 53.745 53.745 53.757 53.773 53.793 53.806 53.829 53.871 53.893 53.888 53.914 53.925 53.951 53.969 54.007 54.018 54.037 54.079 54.127 54.192 54.276 54.321 54.376 54.486 54.506 54.528 54.600 54.636 54.682 54.704 54.790 54.837 54.862 54.835 54.807 54.815 54.819 54.829 54.807 54.798 54.769 54.757 54.791 54.948 54.955 54.869 54.899 54.847 54.853 54.849 54.777 54.768 54.774 54.784 54.729 54.697 54.659 54.624 54.598 54.585 54.561 54.533 54.524 54.520 54.519 54.517 54.519 54.519 54.521 54.521 54.517 54.518 54.520 54.521 54.515 54.503 54.493 54.483 54.469 54.449 54.446 54.437 54.433 54.458 54.477 54.480 54.494 54.501 54.502 54.516 54.517 54.520 54.525 54.535 54.542 54.545 54.546 54.548 54.549 54.543 54.543 54.546 54.544 54.542 54.541 54.540 54.532 54.535 54.533 54.535 54.540 54.541 54.549 54.549 54.552 54.569 54.572 54.595 54.599 54.589 54.667 54.595 54.619 54.652 54.653 54.663 54.715 54.719 54.766 54.838 54.869 54.882 54.829 54.835 54.870 54.903 54.925 54.818 54.844 54.851 54.816 54.829 54.903 54.944 54.983 55.037 55.084 55.139 55.196 55.223 55.230 55.290 55.308 55.317 55.293 55.252 55.243 55.261 55.243 55.243 55.256 55.268 55.264 55.288 55.313 55.366 55.418 55.430 55.411 55.391 55.407 55.320 55.301 55.287 55.294 55.304 55.382 54.985 54.983 54.981 54.978 54.976 54.974 54.971 54.969 54.967 54.964
53.387 53.417 53.446 53.475 53.504 53.533 53.563 53.592 53.621 53.582 53.584 53.592 53.596 53.603 53.606 53.608 53.607 53.606 53.606 53.605 53.601 53.598 53.598 53.602 53.602 53.606 53.612 53.607 53.602 53.601 53.598 53.597 53.598 53.600 53.599 53.596 53.597 53.600 53.610 53.620 53.626 53.627 53.631 53.637 53.640 53.646 53.652 53.661 53.660 53.661 53.661 53.656 53.654 53.643 53.635 53.626 53.615 53.608 53.598 53.589 53.583 53.579 53.571 53.567 53.565 53.571 53.572 53.578 53.584 53.587 53.591 53.584 53.578 53.571 53.565 53.562 53.558 53.553 53.544 53.542 53.544 53.538 53.529 53.534 53.544 53.558 53.553 53.545 53.538 53.541 53.542 53.538 53.541 53.545 53.550 53.553 53.556 53.558 53.559 53.565 53.572 53.578 53.578 53.578 53.576 53.573 53.571 53.569 53.566 53.568 53.568 53.568 53.572 53.572 53.566 53.576 53.583 53.580 53.585 53.589 53.595 53.602 53.607 53.615 53.621 53.623 53.628 53.627 53.639 53.656 53.667 53.656 53.661 53.678 53.705 53.702 53.696 53.695 53.681 53.666 53.668 53.673 53.677 53.682 53.686 53.719 53.757 53.783 53.775 53.763 53.750 53.786 53.782 53.695 53.693 53.693 53.706 53.711 53.715 53.724 53.742 53.731 53.740 53.748 53.744 53.746 53.746 53.742 53.741 53.747 53.747 53.744 53.746 53.740 53.742 53.746 53.748 53.746 53.743 53.744 53.747 53.755 53.778 53.795 53.809 53.828 53.856 53.889 53.897 53.912 53.919 53.934 53.964 53.982 54.016 54.042 54.083 54.135 54.185 54.248 54.300 54.369 54.436 54.499 54.504 54.562 54.646 54.683 54.714 54.732 54.782 54.827 54.846 54.953 54.855 54.817 54.782 54.774 54.790 54.746 54.711 54.727 54.770 54.863 54.897 54.880 54.857 54.774 54.902 54.742 54.732 54.714 54.734 54.714 54.674 54.642 54.625 54.612 54.593 54.551 54.528 54.519 54.515 54.511 54.511 54.515 54.516 54.516 54.514 54.512 54.515 54.521 54.519 54.511 54.499 54.491 54.484 54.471 54.453 54.443 54.424 54.423 54.446 54.457 54.469 54.488 54.494 54.499 54.513 54.511 54.517 54.525 54.534 54.540 54.541 54.543 54.545 54.543 54.539 54.539 54.540 54.542 54.538 54.540 54.537 54.530 54.533 54.530 54.535 54.542 54.542 54.544 54.544 54.553 54.559 54.575 54.581 54.613 54.591 54.648 54.758 54.701 54.705 54.669 54.675 54.688 54.713 54.800 54.841 54.871 54.890 54.882 54.810 54.881 54.924 54.935 54.837 54.815 54.825 54.817 54.824 54.894 54.916 54.954 55.010 55.047 55.117 55.168 55.179 55.157 55.159 55.277 55.215 55.218 55.190 55.185 55.200 55.208 55.227 55.235 55.252 55.245 55.250 55.270 55.314 55.361 55.358 55.348 55.317 55.317 55.249 55.250 55.260 55.302 55.353 55.412 54.982 54.979 54.977 54.974 54.972 54.970 54.967 54.965 54.962 54.960
53.391 53.420 53.448 53.477 53.505 53.534 53.563 53.591 53.620 53.582 53.585 53.594 53.596 53.599 53.603 53.604 53.605 53.603 53.603 53.602 53.601 53.598 53.601 53.604 53.606 53.608 53.610 53.605 53.603 53.601 53.599 53.596 53.596 53.598 53.598 53.597 53.599 53.601 53.607 53.617 53.621 53.625 53.631 53.633 53.636 53.646 53.652 53.658 53.662 53.660 53.658 53.651 53.651 53.641 53.634 53.625 53.616 53.604 53.593 53.587 53.582 53.575 53.572 53.568 53.565 53.568 53.573 53.577 53.581 53.589 53.591 53.587 53.578 53.570 53.566 53.561 53.561 53.563 53.544 53.541 53.544 53.542 53.528 53.532 53.545 53.548 53.548 53.545 53.535 53.540 53.540 53.538 53.542 53.544 53.551 53.555 53.556 53.560 53.561 53.562 53.574 53.576 53.578 53.579 53.579 53.577 53.570 53.570 53.567 53.566 53.566 53.567 53.571 53.567 53.563 53.576 53.581 53.579 53.582 53.586 53.593 53.600 53.601 53.604 53.609 53.618 53.632 53.634 53.631 53.640 53.645 53.651 53.662 53.677 53.702 53.686 53.690 53.704 53.688 53.668 53.659 53.657 53.660 53.663 53.656 53.676 53.712 53.771 53.772 53.796 53.799 53.784 53.761 53.738 53.724 53.729 53.739 53.727 53.722 53.723 53.728 53.733 53.730 53.734 53.743 53.749 53.746 53.751 53.745 53.749 53.745 53.745 53.746 53.745 53.747 53.742 53.741 53.741 53.741 53.744 53.749 53.760 53.770 53.784 53.798 53.823 53.837 53.869 53.885 53.900 53.900 53.930 53.954 53.981 54.008 54.042 54.079 54.138 54.171 54.220 54.311 54.367 54.438 54.491 54.515 54.583 54.641 54.663 54.707 54.729 54.781 54.844 54.848 54.898 54.877 54.825 54.798 54.766 54.757 54.724 54.700 54.729 54.777 54.778 54.803 54.827 54.787 54.750 54.727 54.885 54.749 54.744 54.725 54.707 54.662 54.633 54.641 54.625 54.586 54.537 54.522 54.513 54.509 54.506 54.505 54.507 54.509 54.512 54.510 54.509 54.513 54.514 54.508 54.502 54.490 54.483 54.480 54.473 54.458 54.441 54.419 54.420 54.442 54.451 54.464 54.478 54.486 54.501 54.507 54.508 54.514 54.525 54.534 54.536 54.539 54.540 54.544 54.539 54.534 54.537 54.538 54.538 54.536 54.538 54.534 54.528 54.528 54.527 54.533 54.538 54.539 54.541 54.543 54.556 54.551 54.553 54.612 54.599 54.614 54.666 54.720 54.706 54.717 54.744 54.669 54.687 54.728 54.771 54.806 54.882 54.869 54.848 54.824 54.833 54.864 54.872 54.877 54.872 54.818 54.840 54.833 54.872 54.880 54.956 55.000 55.058 55.064 55.071 55.099 55.117 55.105 55.154 55.156 55.121 55.133 55.123 55.133 55.131 55.127 55.108 55.220 55.220 55.218 55.228 55.257 55.277 55.281 55.271 55.240 55.258 55.237 55.253 55.278 55.352 55.360 55.417 54.978 54.975 54.973 54.970 54.968 54.966 54.963 54.961 54.958 54.956
53.394 53.422 53.451 53.479 53.507 53.535 53.563 53.591 53.619 53.578 53.584 53.590 53.597 53.601 53.604 53.603 53.603 53.603 53.603 53.601 53.598 53.596 53.601 53.602 53.606 53.609 53.608 53.607 53.604 53.599 53.598 53.594 53.593 53.594 53.596 53.598 53.598 53.599 53.606 53.614 53.622 53.628 53.633 53.637 53.640 53.648 53.652 53.656 53.656 53.658 53.660 53.655 53.652 53.642 53.635 53.623 53.612 53.605 53.599 53.595 53.582 53.573 53.573 53.570 53.566 53.568 53.574 53.579 53.582 53.587 53.591 53.585 53.578 53.572 53.568 53.565 53.575 53.564 53.544 53.545 53.540 53.534 53.524 53.527 53.544 53.546 53.546 53.542 53.538 53.533 53.539 53.540 53.542 53.545 53.549 53.553 53.554 53.558 53.561 53.571 53.579 53.580 53.580 53.579 53.581 53.578 53.573 53.567 53.565 53.566 53.565 53.565 53.571 53.565 53.562 53.577 53.580 53.578 53.579 53.582 53.588 53.595 53.597 53.600 53.605 53.613 53.626 53.644 53.640 53.636 53.631 53.627 53.657 53.674 53.695 53.688 53.677 53.672 53.654 53.656 53.668 53.671 53.652 53.654 53.646 53.678 53.761 53.812 53.824 53.853 53.871 53.815 53.764 53.769 53.776 53.788 53.774 53.736 53.750 53.732 53.725 53.732 53.729 53.729 53.740 53.746 53.746 53.749 53.747 53.747 53.752 53.747 53.734 53.736 53.746 53.747 53.745 53.744 53.752 53.746 53.749 53.755 53.767 53.786 53.799 53.833 53.848 53.857 53.869 53.879 53.900 53.929 53.950 53.966 53.993 54.034 54.073 54.128 54.164 54.239 54.316 54.379 54.406 54.443 54.529 54.612 54.638 54.656 54.687 54.714 54.766 54.802 54.828 54.861 54.854 54.846 54.812 54.760 54.788 54.699 54.691 54.718 54.737 54.784 54.761 54.760 54.799 54.907 54.891 54.877 54.815 54.793 54.776 54.733 54.683 54.627 54.640 54.629 54.551 54.530 54.516 54.510 54.505 54.503 54.502 54.502 54.506 54.506 54.503 54.503 54.509 54.506 54.503 54.498 54.486 54.474 54.470 54.465 54.464 54.462 54.422 54.419 54.437 54.447 54.461 54.473 54.482 54.495 54.497 54.507 54.512 54.526 54.532 54.533 54.535 54.539 54.540 54.534 54.532 54.536 54.535 54.535 54.535 54.534 54.530 54.529 54.527 54.529 54.528 54.529 54.532 54.540 54.541 54.556 54.552 54.553 54.598 54.627 54.644 54.727 54.719 54.704 54.720 54.771 54.761 54.683 54.666 54.762 54.793 54.834 54.854 54.814 54.812 54.828 54.838 54.840 54.862 54.894 54.898 54.910 54.861 54.952 54.902 54.952 54.962 55.025 55.031 55.035 55.046 55.060 55.068 55.106 55.112 55.085 55.069 55.050 55.058 55.069 55.062 55.058 55.038 55.162 55.147 55.194 55.210 55.206 55.203 55.192 55.187 55.203 55.238 55.285 55.316 55.378 55.413 55.503 54.974 54.971 54.969 54.966 54.964 54.961 54.959 54.957 54.954 54.952
53.398 53.425 53.453 53.480 53.508 53.535 53.563 53.590 53.618 53.579 53.583 53.589 53.594 53.602 53.604 53.603 53.601 53.601 53.600 53.598 53.596 53.597 53.598 53.602 53.604 53.607 53.607 53.603 53.600 53.600 53.599 53.595 53.594 53.594 53.594 53.598 53.598 53.598 53.605 53.616 53.624 53.630 53.635 53.636 53.642 53.651 53.653 53.656 53.654 53.658 53.657 53.656 53.659 53.646 53.636 53.623 53.610 53.604 53.600 53.589 53.582 53.578 53.572 53.564 53.564 53.568 53.572 53.578 53.579 53.584 53.578 53.578 53.577 53.569 53.566 53.568 53.576 53.560 53.538 53.540 53.536 53.532 53.524 53.531 53.544 53.545 53.541 53.539 53.539 53.544 53.540 53.539 53.541 53.544 53.549 53.552 53.555 53.559 53.563 53.571 53.576 53.579 53.580 53.579 53.582 53.579 53.575 53.569 53.567 53.567 53.566 53.564 53.569 53.560 53.562 53.577 53.577 53.576 53.579 53.578 53.587 53.599 53.597 53.600 53.606 53.611 53.616 53.624 53.625 53.617 53.612 53.617 53.645 53.666 53.672 53.696 53.668 53.649 53.634 53.635 53.660 53.670 53.655 53.663 53.696 53.722 53.788 53.836 53.828 53.832 53.825 53.787 53.810 53.796 53.778 53.795 53.788 53.755 53.766 53.745 53.729 53.730 53.735 53.734 53.734 53.739 53.744 53.748 53.751 53.749 53.755 53.749 53.742 53.742 53.744 53.748 53.746 53.738 53.744 53.742 53.752 53.760 53.780 53.792 53.799 53.811 53.829 53.850 53.856 53.873 53.916 53.939 53.951 53.964 53.993 54.022 54.065 54.113 54.196 54.265 54.365 54.386 54.406 54.448 54.497 54.572 54.606 54.630 54.657 54.703 54.737 54.780 54.821 54.806 54.817 54.897 54.892 54.740 54.816 54.679 54.667 54.692 54.721 54.760 54.778 54.754 54.809 54.826 54.925 54.880 54.879 54.837 54.805 54.754 54.721 54.629 54.608 54.580 54.538 54.522 54.508 54.504 54.497 54.496 54.496 54.497 54.500 54.500 54.500 54.501 54.505 54.503 54.496 54.492 54.484 54.472 54.464 54.458 54.464 54.459 54.415 54.413 54.432 54.453 54.461 54.472 54.483 54.488 54.493 54.503 54.509 54.522 54.527 54.529 54.532 54.538 54.537 54.527 54.530 54.531 54.532 54.532 54.533 54.531 54.526 54.526 54.527 54.529 54.525 54.527 54.534 54.540 54.536 54.558 54.555 54.537 54.545 54.608 54.643 54.688 54.717 54.744 54.711 54.743 54.727 54.670 54.677 54.713 54.711 54.726 54.770 54.811 54.817 54.828 54.833 54.864 54.896 54.918 54.905 54.918 54.897 54.905 54.952 54.942 54.949 55.049 55.014 55.038 55.034 55.032 55.017 55.032 55.062 55.055 55.015 54.980 55.005 55.009 55.035 54.996 54.998 55.024 55.076 55.118 55.136 55.127 55.136 55.137 55.143 55.182 55.237 55.292 55.344 55.395 55.500 55.501 54.970 54.967 54.965 54.962 54.960 54.957 54.955 54.952 54.950 54.947
53.401 53.428 53.455 53.482 53.509 53.536 53.563 53.590 53.617 53.580 53.585 53.592 53.597 53.602 53.602 53.603 53.601 53.599 53.599 53.596 53.595 53.597 53.598 53.597 53.601 53.605 53.607 53.605 53.601 53.600 53.599 53.601 53.599 53.594 53.594 53.597 53.597 53.598 53.606 53.617 53.625 53.630 53.636 53.640 53.643 53.648 53.652 53.655 53.653 53.657 53.658 53.655 53.644 53.642 53.634 53.619 53.611 53.603 53.591 53.583 53.579 53.573 53.571 53.564 53.564 53.565 53.569 53.574 53.577 53.579 53.575 53.572 53.573 53.566 53.565 53.569 53.568 53.545 53.539 53.547 53.538 53.531 53.524 53.534 53.548 53.549 53.540 53.538 53.540 53.540 53.538 53.538 53.543 53.541 53.547 53.551 53.554 53.559 53.558 53.573 53.576 53.578 53.581 53.582 53.583 53.580 53.575 53.568 53.567 53.565 53.565 53.565 53.569 53.561 53.562 53.573 53.576 53.578 53.572 53.576 53.580 53.592 53.601 53.598 53.603 53.607 53.610 53.613 53.621 53.616 53.609 53.615 53.643 53.652 53.654 53.657 53.656 53.644 53.637 53.634 53.639 53.681 53.690 53.696 53.677 53.726 53.793 53.802 53.790 53.758 53.772 53.782 53.813 53.814 53.803 53.802 53.799 53.791 53.768 53.745 53.728 53.732 53.743 53.741 53.740 53.741 53.746 53.750 53.749 53.750 53.747 53.747 53.746 53.744 53.748 53.749 53.741 53.735 53.743 53.750 53.758 53.767 53.784 53.796 53.797 53.798 53.819 53.854 53.867 53.896 53.925 53.942 53.963 53.972 53.991 54.012 54.060 54.100 54.167 54.231 54.311 54.387 54.413 54.469 54.500 54.534 54.584 54.617 54.651 54.711 54.723 54.761 54.812 54.807 54.818 54.841 54.745 54.833 54.776 54.667 54.637 54.649 54.666 54.755 54.792 54.833 54.824 54.846 54.842 54.818 54.859 54.867 54.824 54.806 54.734 54.637 54.591 54.558 54.531 54.510 54.502 54.499 54.493 54.490 54.489 54.491 54.495 54.494 54.496 54.499 54.500 54.497 54.492 54.489 54.478 54.468 54.460 54.452 54.443 54.431 54.405 54.410 54.423 54.448 54.460 54.470 54.481 54.479 54.488 54.498 54.505 54.521 54.524 54.526 54.530 54.534 54.530 54.526 54.528 54.530 54.530 54.530 54.531 54.529 54.524 54.525 54.524 54.527 54.524 54.527 54.528 54.531 54.529 54.528 54.542 54.549 54.546 54.564 54.633 54.661 54.710 54.697 54.668 54.688 54.722 54.696 54.698 54.731 54.736 54.760 54.795 54.820 54.830 54.868 54.878 54.900 54.945 54.948 54.987 55.204 55.127 55.169 55.154 55.077 55.116 55.113 55.124 55.051 55.078 55.027 55.009 55.017 55.032 55.023 54.977 54.951 54.953 54.976 54.938 54.949 54.952 54.978 55.006 55.028 55.056 55.071 55.098 55.110 55.121 55.237 55.270 55.323 55.399 55.451 55.489 55.485 54.966 54.964 54.961 54.958 54.956 54.953 54.951 54.948 54.946 54.943
53.405 53.431 53.458 53.484 53.510 53.537 53.563 53.589 53.616 53.583 53.589 53.594 53.599 53.601 53.601 53.601 53.599 53.593 53.593 53.592 53.591 53.594 53.595 53.597 53.599 53.601 53.603 53.603 53.600 53.600 53.598 53.598 53.595 53.593 53.594 53.596 53.599 53.600 53.607 53.614 53.621 53.631 53.636 53.638 53.641 53.647 53.654 53.654 53.653 53.658 53.659 53.653 53.641 53.633 53.625 53.617 53.611 53.600 53.593 53.588 53.576 53.567 53.566 53.567 53.564 53.564 53.569 53.570 53.574 53.578 53.574 53.573 53.574 53.565 53.564 53.560 53.555 53.544 53.539 53.553 53.545 53.533 53.526 53.538 53.550 53.548 53.541 53.536 53.541 53.537 53.536 53.538 53.544 53.541 53.547 53.553 53.556 53.561 53.563 53.570 53.576 53.577 53.581 53.580 53.580 53.579 53.575 53.569 53.565 53.565 53.563 53.567 53.570 53.559 53.560 53.573 53.570 53.561 53.561 53.572 53.579 53.582 53.591 53.594 53.597 53.606 53.611 53.605 53.613 53.617 53.626 53.628 53.658 53.646 53.650 53.648 53.651 53.657 53.652 53.656 53.646 53.683 53.712 53.706 53.656 53.689 53.746 53.774 53.766 53.749 53.766 53.794 53.795 53.777 53.783 53.765 53.783 53.777 53.759 53.742 53.734 53.737 53.748 53.747 53.747 53.751 53.762 53.748 53.739 53.742 53.747 53.748 53.746 53.744 53.749 53.757 53.747 53.740 53.752 53.757 53.762 53.772 53.779 53.793 53.793 53.794 53.822 53.857 53.887 53.926 53.941 53.946 53.993 53.996 54.006 54.017 54.059 54.093 54.156 54.211 54.316 54.352 54.358 54.414 54.474 54.504 54.583 54.612 54.652 54.713 54.726 54.748 54.794 54.796 54.784 54.804 54.766 54.743 54.717 54.685 54.640 54.640 54.657 54.718 54.784 54.816 54.838 54.859 54.867 54.844 54.861 54.882 54.857 54.783 54.775 54.605 54.564 54.541 54.511 54.500 54.493 54.489 54.488 54.485 54.484 54.487 54.488 54.489 54.492 54.494 54.492 54.492 54.485 54.481 54.468 54.456 54.451 54.442 54.429 54.413 54.395 54.395 54.413 54.437 54.455 54.465 54.474 54.471 54.484 54.493 54.509 54.514 54.518 54.523 54.528 54.531 54.524 54.525 54.527 54.528 54.534 54.533 54.530 54.526 54.526 54.524 54.524 54.522 54.522 54.527 54.525 54.534 54.527 54.529 54.525 54.539 54.539 54.545 54.625 54.649 54.678 54.645 54.637 54.642 54.647 54.678 54.703 54.759 54.799 54.801 54.805 54.821 54.986 54.958 54.911 54.939 54.981 54.997 55.012 55.138 55.219 55.191 55.162 55.127 55.141 55.149 55.143 55.099 55.080 55.094 55.159 55.032 55.026 55.010 54.986 54.966 54.954 54.987 54.949 54.906 54.930 54.947 54.953 54.984 55.023 55.069 55.103 55.105 55.131 55.269 55.364 55.372 55.403 55.454 55.470 55.472 54.962 54.960 54.957 54.954 54.952 54.949 54.947 54.944 54.942 54.939
53.408 53.434 53.460 53.486 53.512 53.537 53.563 53.589 53.614 53.587 53.593 53.598 53.598 53.600 53.599 53.595 53.594 53.590 53.589 53.590 53.588 53.590 53.593 53.596 53.597 53.600 53.601 53.602 53.599 53.597 53.596 53.593 53.596 53.596 53.595 53.599 53.602 53.604 53.608 53.619 53.628 53.634 53.639 53.641 53.642 53.647 53.654 53.655 53.655 53.660 53.660 53.658 53.651 53.638 53.625 53.617 53.608 53.598 53.592 53.581 53.573 53.567 53.564 53.564 53.566 53.567 53.570 53.571 53.567 53.574 53.582 53.580 53.573 53.561 53.560 53.555 53.553 53.545 53.541 53.546 53.543 53.533 53.526 53.539 53.545 53.544 53.537 53.536 53.543 53.543 53.535 53.535 53.538 53.542 53.547 53.551 53.554 53.558 53.564 53.575 53.576 53.580 53.582 53.584 53.582 53.577 53.574 53.569 53.564 53.565 53.563 53.568 53.568 53.556 53.564 53.576 53.571 53.552 53.551 53.568 53.582 53.591 53.592 53.596 53.599 53.603 53.610 53.600 53.603 53.621 53.626 53.645 53.654 53.652 53.652 53.657 53.668 53.655 53.662 53.684 53.649 53.664 53.697 53.665 53.654 53.693 53.742 53.729 53.718 53.727 53.748 53.781 53.786 53.779 53.776 53.757 53.746 53.748 53.758 53.745 53.750 53.746 53.747 53.748 53.751 53.749 53.750 53.746 53.735 53.746 53.750 53.755 53.759 53.753 53.748 53.751 53.750 53.742 53.748 53.759 53.770 53.775 53.781 53.792 53.798 53.793 53.825 53.864 53.895 53.954 53.953 53.960 53.967 54.010 54.034 54.043 54.056 54.089 54.137 54.271 54.355 54.376 54.366 54.411 54.456 54.495 54.576 54.637 54.662 54.699 54.715 54.714 54.779 54.810 54.826 54.844 54.823 54.768 54.727 54.688 54.642 54.645 54.653 54.697 54.800 54.800 54.868 54.877 54.887 54.904 54.933 54.907 54.869 54.824 54.810 54.590 54.543 54.509 54.496 54.491 54.486 54.483 54.483 54.482 54.481 54.482 54.484 54.483 54.486 54.487 54.487 54.485 54.481 54.471 54.456 54.449 54.453 54.440 54.427 54.406 54.391 54.386 54.399 54.426 54.444 54.456 54.461 54.463 54.479 54.494 54.504 54.511 54.514 54.521 54.527 54.527 54.522 54.526 54.526 54.527 54.528 54.530 54.529 54.523 54.524 54.523 54.523 54.517 54.520 54.525 54.525 54.520 54.520 54.540 54.537 54.569 54.577 54.600 54.612 54.635 54.666 54.643 54.615 54.639 54.660 54.700 54.742 54.774 54.815 54.870 54.898 54.896 54.987 54.982 54.994 54.989 55.024 55.021 55.210 55.213 55.221 55.216 55.193 55.158 55.161 55.169 55.179 55.143 55.158 55.142 55.155 55.136 55.073 55.041 55.014 55.009 54.999 54.970 54.957 54.910 54.907 54.924 54.932 54.946 55.017 55.060 55.081 55.117 55.172 55.257 55.323 55.359 55.416 55.461 55.488 55.512 54.958 54.956 54.953 54.951 54.948 54.945 54.943 54.940 54.938 54.935
53.412 53.437 53.462 53.488 53.513 53.538 53.563 53.588 53.613 53.591 53.596 53.601 53.604 53.605 53.602 53.595 53.593 53.589 53.586 53.589 53.590 53.589 53.592 53.596 53.596 53.595 53.598 53.599 53.598 53.595 53.595 53.600 53.602 53.603 53.614 53.614 53.612 53.611 53.611 53.620 53.628 53.636 53.640 53.644 53.647 53.648 53.655 53.655 53.659 53.658 53.654 53.654 53.654 53.642 53.629 53.617 53.601 53.591 53.589 53.581 53.573 53.568 53.563 53.563 53.568 53.569 53.571 53.568 53.564 53.578 53.590 53.589 53.568 53.560 53.557 53.555 53.549 53.544 53.544 53.544 53.536 53.530 53.527 53.539 53.546 53.545 53.537 53.537 53.542 53.539 53.535 53.537 53.539 53.542 53.547 53.550 53.553 53.559 53.563 53.576 53.576 53.580 53.582 53.586 53.585 53.578 53.573 53.568 53.567 53.566 53.564 53.569 53.569 53.554 53.566 53.578 53.571 53.562 53.554 53.564 53.589 53.596 53.602 53.607 53.608 53.602 53.595 53.604 53.608 53.638 53.643 53.644 53.662 53.644 53.658 53.679 53.685 53.667 53.647 53.638 53.642 53.659 53.645 53.656 53.678 53.713 53.750 53.721 53.701 53.737 53.741 53.752 53.752 53.765 53.780 53.774 53.743 53.740 53.756 53.753 53.741 53.745 53.748 53.750 53.753 53.750 53.752 53.758 53.750 53.755 53.753 53.758 53.757 53.758 53.749 53.747 53.747 53.746 53.747 53.755 53.767 53.773 53.784 53.801 53.811 53.810 53.832 53.877 53.920 53.972 53.954 53.947 53.982 54.041 54.036 54.053 54.061 54.077 54.124 54.294 54.357 54.381 54.388 54.493 54.458 54.502 54.569 54.632 54.669 54.694 54.761 54.739 54.748 54.768 54.767 54.795 54.822 54.798 54.728 54.705 54.646 54.631 54.652 54.759 54.778 54.785 54.818 54.855 54.876 54.909 54.922 54.893 54.868 54.811 54.608 54.568 54.530 54.502 54.489 54.484 54.480 54.478 54.476 54.477 54.478 54.478 54.478 54.477 54.482 54.482 54.483 54.481 54.474 54.463 54.453 54.447 54.440 54.431 54.423 54.403 54.385 54.377 54.392 54.418 54.435 54.447 54.453 54.458 54.471 54.490 54.501 54.507 54.512 54.519 54.524 54.523 54.521 54.524 54.524 54.526 54.526 54.527 54.526 54.524 54.522 54.523 54.523 54.517 54.519 54.524 54.524 54.516 54.520 54.535 54.537 54.553 54.548 54.580 54.607 54.660 54.596 54.611 54.642 54.680 54.696 54.720 54.751 54.800 54.852 54.907 54.938 54.968 55.022 55.033 55.082 55.110 55.143 55.183 55.196 55.218 55.209 55.214 55.213 55.196 55.196 55.207 55.185 55.186 55.200 55.173 55.150 55.136 55.118 55.102 55.100 55.082 55.050 55.002 54.987 54.973 54.986 54.939 54.929 54.916 54.962 55.012 55.053 55.127 55.187 55.260 55.308 55.358 55.393 55.452 55.526 55.582 54.954 54.952 54.949 54.947 54.944 54.941 54.939 54.936 54.933 54.931
53.416 53.440 53.465 53.490 53.514 53.539 53.563 53.588 53.612 53.596 53.602 53.606 53.607 53.606 53.608 53.598 53.596 53.594 53.594 53.587 53.591 53.594 53.594 53.598 53.597 53.597 53.600 53.604 53.600 53.598 53.602 53.605 53.611 53.611 53.617 53.615 53.621 53.617 53.615 53.623 53.629 53.635 53.642 53.645 53.648 53.652 53.655 53.654 53.656 53.654 53.646 53.647 53.647 53.637 53.623 53.609 53.596 53.588 53.584 53.580 53.573 53.570 53.567 53.568 53.567 53.571 53.573 53.576 53.576 53.580 53.584 53.581 53.569 53.562 53.564 53.560 53.552 53.549 53.551 53.546 53.536 53.529 53.523 53.536 53.541 53.545 53.536 53.537 53.542 53.541 53.534 53.536 53.538 53.544 53.547 53.549 53.552 53.557 53.563 53.574 53.577 53.580 53.582 53.586 53.584 53.578 53.572 53.566 53.566 53.566 53.564 53.566 53.565 53.556 53.569 53.578 53.568 53.570 53.569 53.570 53.588 53.596 53.603 53.608 53.626 53.610 53.602 53.606 53.617 53.644 53.656 53.658 53.671 53.651 53.652 53.690 53.696 53.673 53.646 53.630 53.638 53.637 53.645 53.662 53.661 53.684 53.688 53.676 53.701 53.739 53.730 53.738 53.749 53.758 53.768 53.778 53.733 53.741 53.746 53.760 53.742 53.747 53.745 53.750 53.753 53.753 53.749 53.761 53.763 53.753 53.760 53.762 53.763 53.754 53.747 53.751 53.750 53.753 53.759 53.758 53.758 53.770 53.794 53.804 53.813 53.819 53.846 53.892 53.927 53.944 53.941 53.954 53.988 54.021 54.043 54.048 54.057 54.079 54.135 54.201 54.301 54.352 54.375 54.478 54.508 54.514 54.540 54.611 54.670 54.710 54.743 54.753 54.753 54.766 54.752 54.727 54.737 54.731 54.745 54.715 54.662 54.597 54.609 54.636 54.728 54.662 54.741 54.816 54.881 54.912 54.910 54.877 54.870 54.828 54.674 54.544 54.506 54.492 54.482 54.475 54.475 54.472 54.471 54.474 54.475 54.475 54.471 54.474 54.476 54.476 54.475 54.473 54.468 54.455 54.450 54.440 54.425 54.421 54.415 54.402 54.387 54.373 54.388 54.415 54.432 54.446 54.450 54.456 54.467 54.485 54.500 54.505 54.509 54.516 54.518 54.518 54.520 54.523 54.522 54.525 54.526 54.532 54.533 54.524 54.525 54.522 54.521 54.519 54.516 54.525 54.522 54.515 54.527 54.547 54.541 54.523 54.527 54.551 54.608 54.643 54.779 54.784 54.658 54.689 54.706 54.931 54.930 54.938 54.902 54.932 54.971 55.009 55.044 55.076 55.092 55.130 55.160 55.219 55.241 55.231 55.225 55.225 55.233 55.245 55.235 55.239 55.267 55.258 55.254 55.243 55.244 55.209 55.171 55.176 55.150 55.123 55.091 55.078 55.030 55.035 55.013 54.891 54.888 54.906 54.942 54.980 55.071 55.140 55.171 55.245 55.304 55.346 55.365 55.435 55.511 55.582 54.951 54.948 54.945 54.943 54.940 54.937 54.935 54.932 54.929 54.927
53.419 53.443 53.467 53.491 53.515 53.539 53.564 53.588 53.611 53.597 53.601 53.607 53.609 53.611 53.606 53.601 53.594 53.606 53.617 53.594 53.589 53.589 53.590 53.593 53.591 53.594 53.601 53.606 53.602 53.604 53.604 53.602 53.598 53.598 53.597 53.603 53.610 53.613 53.620 53.625 53.632 53.640 53.644 53.647 53.647 53.651 53.655 53.656 53.658 53.657 53.652 53.645 53.639 53.630 53.622 53.611 53.595 53.588 53.582 53.579 53.573 53.573 53.564 53.566 53.564 53.568 53.575 53.575 53.582 53.585 53.583 53.576 53.573 53.562 53.563 53.560 53.558 53.556 53.549 53.550 53.546 53.529 53.526 53.536 53.541 53.541 53.535 53.536 53.544 53.540 53.533 53.530 53.534 53.544 53.548 53.549 53.553 53.557 53.563 53.572 53.576 53.580 53.582 53.584 53.583 53.578 53.572 53.568 53.567 53.567 53.564 53.566 53.564 53.560 53.570 53.578 53.571 53.571 53.572 53.575 53.578 53.583 53.596 53.608 53.611 53.611 53.598 53.614 53.630 53.655 53.671 53.678 53.695 53.663 53.678 53.693 53.683 53.657 53.633 53.633 53.644 53.642 53.654 53.664 53.657 53.668 53.687 53.708 53.746 53.771 53.732 53.767 53.746 53.734 53.749 53.774 53.728 53.716 53.737 53.754 53.749 53.737 53.743 53.752 53.756 53.752 53.747 53.754 53.771 53.753 53.752 53.752 53.756 53.751 53.753 53.754 53.756 53.749 53.757 53.760 53.760 53.767 53.792 53.808 53.815 53.828 53.849 53.905 53.933 53.945 53.946 53.964 54.002 54.054 54.088 54.045 54.054 54.080 54.130 54.198 54.284 54.327 54.360 54.423 54.455 54.522 54.576 54.595 54.673 54.721 54.714 54.708 54.750 54.757 54.725 54.714 54.700 54.718 54.749 54.697 54.688 54.591 54.617 54.656 54.670 54.695 54.701 54.756 54.763 54.807 54.835 54.854 54.883 54.855 54.529 54.506 54.494 54.481 54.473 54.469 54.468 54.467 54.468 54.470 54.469 54.469 54.468 54.471 54.473 54.470 54.468 54.465 54.460 54.449 54.444 54.438 54.423 54.415 54.403 54.406 54.394 54.364 54.379 54.403 54.430 54.441 54.447 54.454 54.467 54.480 54.492 54.497 54.501 54.508 54.513 54.516 54.521 54.520 54.519 54.524 54.524 54.529 54.531 54.518 54.519 54.518 54.518 54.517 54.516 54.524 54.524 54.517 54.517 54.536 54.528 54.520 54.538 54.566 54.583 54.652 54.646 54.800 54.779 54.712 54.740 54.920 54.952 54.953 54.923 54.942 54.998 55.014 55.111 55.144 55.165 55.136 55.144 55.256 55.284 55.273 55.284 55.300 55.289 55.298 55.337 55.313 55.299 55.305 55.294 55.276 55.287 55.289 55.286 55.244 55.194 55.172 55.148 55.123 55.048 55.036 54.985 54.905 54.868 54.888 54.967 55.000 55.057 55.121 55.169 55.227 55.293 55.338 55.384 55.428 55.506 55.565 54.947 54.944 54.941 54.939 54.936 54.933 54.931 54.928 54.925 54.922
53.423 53.446 53.470 53.493 53.517 53.540 53.564 53.587 53.611 53.597 53.603 53.608 53.611 53.611 53.607 53.601 53.596 53.592 53.590 53.595 53.586 53.584 53.586 53.593 53.590 53.593 53.598 53.601 53.603 53.607 53.608 53.603 53.594 53.586 53.590 53.600 53.604 53.609 53.619 53.627 53.635 53.643 53.645 53.646 53.648 53.650 53.652 53.653 53.656 53.657 53.657 53.650 53.637 53.627 53.617 53.609 53.596 53.585 53.580 53.575 53.571 53.569 53.565 53.565 53.564 53.567 53.568 53.569 53.577 53.578 53.578 53.573 53.567 53.562 53.558 53.554 53.549 53.548 53.546 53.556 53.547 53.530 53.527 53.538 53.543 53.544 53.536 53.536 53.549 53.544 53.530 53.532 53.538 53.544 53.549 53.549 53.554 53.555 53.565 53.571 53.575 53.579 53.581 53.583 53.582 53.576 53.573 53.568 53.567 53.565 53.564 53.567 53.565 53.561 53.575 53.577 53.572 53.572 53.572 53.577 53.580 53.587 53.586 53.598 53.611 53.611 53.600 53.620 53.650 53.677 53.682 53.686 53.701 53.678 53.678 53.689 53.662 53.651 53.648 53.656 53.646 53.643 53.649 53.650 53.634 53.661 53.711 53.754 53.783 53.811 53.742 53.727 53.708 53.701 53.739 53.739 53.731 53.726 53.734 53.727 53.726 53.730 53.739 53.748 53.755 53.751 53.752 53.753 53.765 53.760 53.750 53.746 53.749 53.755 53.756 53.754 53.748 53.750 53.768 53.768 53.763 53.766 53.784 53.809 53.809 53.833 53.845 53.874 53.927 53.931 53.939 53.953 53.974 54.034 54.141 54.122 54.059 54.074 54.132 54.187 54.262 54.301 54.353 54.388 54.449 54.511 54.566 54.612 54.659 54.702 54.685 54.700 54.747 54.733 54.679 54.677 54.692 54.694 54.694 54.678 54.638 54.597 54.742 54.798 54.824 54.808 54.656 54.728 54.730 54.739 54.790 54.841 54.865 54.877 54.735 54.502 54.489 54.475 54.467 54.466 54.463 54.463 54.465 54.466 54.466 54.464 54.466 54.466 54.469 54.466 54.466 54.462 54.457 54.445 54.443 54.437 54.424 54.410 54.398 54.388 54.378 54.358 54.373 54.393 54.421 54.433 54.444 54.454 54.465 54.478 54.491 54.494 54.499 54.506 54.510 54.515 54.519 54.518 54.518 54.520 54.518 54.522 54.519 54.512 54.519 54.518 54.516 54.517 54.515 54.517 54.526 54.516 54.515 54.525 54.520 54.517 54.525 54.565 54.580 54.582 54.640 54.796 54.776 54.743 54.764 54.826 54.929 54.949 54.947 54.984 55.155 55.139 55.142 55.188 55.302 55.391 55.336 55.332 55.334 55.335 55.326 55.310 55.334 55.350 55.359 55.357 55.362 55.351 55.349 55.358 55.328 55.304 55.310 55.270 55.249 55.215 55.190 55.162 55.146 55.081 55.048 54.919 54.880 54.895 54.947 54.999 55.059 55.111 55.164 55.218 55.278 55.339 55.392 55.437 55.513 55.537 54.943 54.940 54.937 54.935 54.932 54.929 54.926 54.924 54.921 54.918
53.426 53.449 53.472 53.495 53.518 53.541 53.564 53.587 53.610 53.601 53.606 53.611 53.614 53.612 53.610 53.606 53.598 53.591 53.583 53.583 53.580 53.580 53.583 53.584 53.585 53.589 53.593 53.596 53.601 53.603 53.603 53.598 53.595 53.586 53.589 53.596 53.600 53.608 53.623 53.633 53.638 53.644 53.645 53.647 53.647 53.649 53.649 53.650 53.653 53.655 53.655 53.648 53.636 53.627 53.617 53.605 53.589 53.582 53.578 53.575 53.572 53.570 53.566 53.564 53.564 53.566 53.565 53.568 53.569 53.571 53.575 53.573 53.568 53.560 53.555 53.556 53.550 53.544 53.542 53.550 53.535 53.528 53.525 53.535 53.546 53.544 53.534 53.537 53.548 53.540 53.532 53.534 53.538 53.543 53.548 53.549 53.553 53.553 53.564 53.568 53.574 53.576 53.577 53.581 53.579 53.576 53.572 53.568 53.568 53.563 53.564 53.568 53.566 53.562 53.576 53.573 53.570 53.572 53.572 53.574 53.580 53.597 53.593 53.592 53.595 53.598 53.598 53.616 53.662 53.681 53.682 53.678 53.690 53.672 53.667 53.660 53.635 53.633 53.646 53.658 53.662 53.659 53.658 53.652 53.643 53.676 53.736 53.789 53.824 53.819 53.760 53.725 53.702 53.714 53.752 53.758 53.749 53.747 53.739 53.747 53.746 53.727 53.733 53.738 53.744 53.745 53.752 53.763 53.757 53.754 53.753 53.745 53.762 53.757 53.765 53.763 53.762 53.753 53.763 53.761 53.760 53.766 53.777 53.785 53.806 53.828 53.851 53.883 53.917 53.949 53.969 53.956 53.949 54.070 54.135 54.148 54.107 54.078 54.116 54.158 54.224 54.295 54.350 54.409 54.488 54.532 54.556 54.589 54.628 54.642 54.666 54.688 54.693 54.713 54.672 54.655 54.664 54.713 54.694 54.647 54.637 54.665 54.728 54.868 54.889 54.876 54.609 54.629 54.672 54.718 54.879 54.845 54.843 54.673 54.545 54.506 54.476 54.468 54.462 54.459 54.458 54.458 54.462 54.463 54.461 54.461 54.464 54.463 54.464 54.461 54.460 54.457 54.452 54.443 54.439 54.430 54.420 54.401 54.383 54.365 54.352 54.351 54.371 54.392 54.414 54.429 54.445 54.451 54.461 54.472 54.480 54.486 54.496 54.507 54.512 54.516 54.518 54.518 54.514 54.517 54.518 54.518 54.515 54.514 54.521 54.518 54.515 54.519 54.517 54.519 54.522 54.517 54.514 54.525 54.514 54.530 54.537 54.604 54.594 54.587 54.629 54.756 54.738 54.720 54.771 54.820 54.887 54.934 54.984 55.027 55.142 55.156 55.174 55.241 55.297 55.304 55.330 55.329 55.328 55.333 55.335 55.354 55.390 55.389 55.422 55.435 55.426 55.413 55.388 55.382 55.362 55.371 55.346 55.300 55.305 55.301 55.248 55.200 55.166 55.127 55.056 54.988 54.896 54.909 54.934 54.997 55.052 55.099 55.138 55.188 55.226 55.343 55.417 55.472 55.508 55.513 54.939 54.936 54.933 54.931 54.928 54.925 54.922 54.920 54.917 54.914
53.430 53.452 53.475 53.497 53.519 53.542 53.564 53.586 53.609 53.606 53.609 53.613 53.616 53.616 53.614 53.608 53.598 53.591 53.586 53.588 53.583 53.576 53.582 53.582 53.590 53.593 53.593 53.597 53.601 53.603 53.603 53.613 53.610 53.595 53.595 53.596 53.600 53.611 53.631 53.652 53.646 53.645 53.649 53.648 53.646 53.649 53.648 53.647 53.648 53.649 53.650 53.644 53.633 53.621 53.612 53.597 53.586 53.581 53.579 53.576 53.573 53.570 53.565 53.564 53.564 53.568 53.567 53.569 53.568 53.574 53.579 53.574 53.566 53.560 53.557 53.563 53.551 53.543 53.537 53.549 53.536 53.524 53.525 53.538 53.547 53.541 53.535 53.536 53.540 53.537 53.536 53.537 53.539 53.542 53.548 53.552 53.552 53.555 53.564 53.568 53.572 53.575 53.576 53.578 53.577 53.573 53.571 53.568 53.567 53.565 53.567 53.567 53.563 53.566 53.576 53.570 53.564 53.564 53.571 53.574 53.582 53.589 53.596 53.596 53.599 53.599 53.601 53.611 53.629 53.654 53.661 53.662 53.663 53.662 53.657 53.658 53.650 53.614 53.620 53.650 53.657 53.665 53.646 53.639 53.678 53.737 53.767 53.781 53.820 53.812 53.772 53.736 53.722 53.737 53.771 53.779 53.776 53.766 53.765 53.760 53.755 53.731 53.731 53.735 53.741 53.750 53.751 53.762 53.757 53.749 53.749 53.750 53.761 53.763 53.762 53.762 53.760 53.753 53.755 53.754 53.754 53.764 53.776 53.781 53.804 53.825 53.854 53.893 53.901 53.953 53.978 53.958 53.948 54.031 54.119 54.124 54.109 54.100 54.116 54.161 54.211 54.278 54.346 54.419 54.476 54.540 54.557 54.593 54.609 54.609 54.630 54.632 54.641 54.664 54.656 54.621 54.626 54.662 54.665 54.659 54.660 54.655 54.712 54.740 54.619 54.604 54.618 54.607 54.620 54.712 54.777 54.725 54.712 54.611 54.547 54.481 54.466 54.459 54.455 54.453 54.454 54.455 54.459 54.459 54.459 54.459 54.458 54.460 54.461 54.457 54.452 54.451 54.442 54.438 54.436 54.427 54.416 54.399 54.377 54.362 54.348 54.350 54.368 54.393 54.416 54.426 54.438 54.446 54.461 54.468 54.474 54.483 54.494 54.504 54.509 54.512 54.512 54.514 54.511 54.514 54.514 54.507 54.509 54.512 54.516 54.517 54.523 54.523 54.520 54.520 54.519 54.513 54.507 54.519 54.497 54.505 54.597 54.596 54.561 54.576 54.641 54.710 54.724 54.736 54.774 54.830 54.911 54.961 55.035 55.062 55.140 55.176 55.236 55.263 55.271 55.309 55.304 55.315 55.337 55.351 55.341 55.435 55.422 55.436 55.461 55.469 55.462 55.456 55.452 55.446 55.461 55.437 55.431 55.401 55.340 55.307 55.263 55.216 55.180 55.133 55.042 54.973 54.916 54.908 54.937 54.982 55.041 55.073 55.116 55.154 55.185 55.401 55.429 55.453 55.458 55.486 54.935 54.932 54.929 54.927 54.924 54.921 54.918 54.916 54.913 54.910
53.434 53.456 53.477 53.499 53.521 53.543 53.564 53.586 53.608 53.610 53.612 53.615 53.615 53.617 53.617 53.613 53.604 53.594 53.586 53.586 53.589 53.606 53.609 53.587 53.592 53.598 53.598 53.598 53.605 53.604 53.612 53.636 53.630 53.619 53.614 53.595 53.601 53.613 53.629 53.646 53.654 53.647 53.650 53.651 53.646 53.648 53.645 53.644 53.646 53.645 53.640 53.635 53.631 53.620 53.605 53.592 53.584 53.581 53.578 53.576 53.574 53.567 53.563 53.562 53.563 53.563 53.564 53.568 53.571 53.574 53.577 53.573 53.565 53.562 53.560 53.560 53.551 53.546 53.537 53.542 53.535 53.524 53.525 53.539 53.541 53.535 53.534 53.538 53.539 53.539 53.535 53.536 53.537 53.545 53.549 53.549 53.551 53.553 53.564 53.565 53.567 53.568 53.572 53.573 53.574 53.573 53.569 53.567 53.565 53.565 53.568 53.576 53.565 53.566 53.579 53.569 53.559 53.558 53.564 53.572 53.584 53.588 53.596 53.601 53.608 53.610 53.609 53.611 53.621 53.627 53.628 53.649 53.633 53.620 53.636 53.652 53.624 53.618 53.629 53.641 53.632 53.637 53.647 53.667 53.702 53.738 53.744 53.789 53.838 53.863 53.786 53.756 53.768 53.765 53.777 53.789 53.774 53.757 53.744 53.741 53.735 53.731 53.741 53.741 53.741 53.745 53.746 53.749 53.750 53.752 53.749 53.749 53.754 53.769 53.769 53.767 53.756 53.752 53.751 53.755 53.754 53.762 53.765 53.781 53.794 53.814 53.855 53.891 53.900 53.920 53.975 53.955 53.955 54.038 54.079 54.097 54.081 54.097 54.141 54.172 54.194 54.259 54.342 54.374 54.425 54.474 54.526 54.564 54.579 54.589 54.606 54.617 54.640 54.640 54.623 54.600 54.600 54.641 54.665 54.677 54.630 54.629 54.635 54.731 54.606 54.605 54.638 54.660 54.616 54.729 54.691 54.715 54.721 54.525 54.502 54.473 54.462 54.455 54.451 54.449 54.449 54.451 54.454 54.454 54.453 54.457 54.454 54.455 54.457 54.453 54.449 54.445 54.436 54.434 54.431 54.422 54.408 54.400 54.380 54.362 54.350 54.350 54.367 54.395 54.417 54.424 54.432 54.440 54.456 54.459 54.467 54.480 54.496 54.500 54.504 54.507 54.508 54.510 54.511 54.514 54.512 54.503 54.508 54.512 54.512 54.513 54.519 54.522 54.517 54.517 54.516 54.512 54.506 54.516 54.517 54.597 54.625 54.614 54.539 54.580 54.630 54.674 54.705 54.752 54.786 54.834 54.939 55.002 55.077 55.099 55.146 55.197 55.236 55.252 55.257 55.277 55.291 55.318 55.346 55.409 55.467 55.455 55.445 55.471 55.483 55.481 55.484 55.493 55.491 55.486 55.492 55.465 55.450 55.412 55.361 55.305 55.259 55.219 55.157 55.111 55.041 54.978 54.924 54.911 54.941 54.960 55.019 55.054 55.082 55.134 55.146 55.434 55.445 55.415 55.429 55.465 54.931 54.928 54.926 54.923 54.920 54.917 54.914 54.911 54.909 54.906
53.437 53.459 53.480 53.501 53.522 53.543 53.565 53.586 53.607 53.610 53.613 53.616 53.612 53.609 53.611 53.603 53.600 53.592 53.585 53.583 53.581 53.590 53.600 53.588 53.591 53.595 53.598 53.597 53.603 53.603 53.604 53.607 53.614 53.609 53.608 53.597 53.604 53.614 53.631 53.633 53.641 53.646 53.649 53.647 53.644 53.643 53.642 53.644 53.646 53.643 53.640 53.640 53.632 53.617 53.600 53.592 53.584 53.580 53.576 53.573 53.570 53.567 53.565 53.564 53.563 53.564 53.567 53.568 53.573 53.575 53.578 53.574 53.568 53.563 53.562 53.563 53.557 53.549 53.539 53.541 53.534 53.524 53.530 53.538 53.538 53.533 53.534 53.536 53.540 53.542 53.536 53.535 53.538 53.547 53.551 53.554 53.557 53.557 53.565 53.566 53.567 53.568 53.568 53.572 53.575 53.572 53.570 53.567 53.566 53.567 53.572 53.575 53.563 53.565 53.580 53.570 53.565 53.558 53.558 53.562 53.571 53.586 53.595 53.603 53.611 53.614 53.613 53.610 53.616 53.616 53.620 53.643 53.641 53.626 53.652 53.645 53.614 53.631 53.641 53.641 53.659 53.673 53.687 53.687 53.724 53.705 53.726 53.758 53.779 53.820 53.795 53.762 53.863 53.779 53.820 53.814 53.780 53.750 53.731 53.750 53.749 53.747 53.743 53.742 53.739 53.737 53.743 53.747 53.753 53.752 53.756 53.750 53.745 53.764 53.763 53.760 53.757 53.756 53.759 53.763 53.757 53.764 53.766 53.781 53.797 53.809 53.844 53.870 53.873 53.891 53.925 53.941 53.973 54.075 54.073 54.085 54.078 54.097 54.130 54.170 54.214 54.263 54.344 54.355 54.378 54.433 54.468 54.513 54.531 54.539 54.564 54.582 54.613 54.620 54.603 54.592 54.588 54.617 54.657 54.644 54.615 54.600 54.703 54.629 54.664 54.620 54.627 54.647 54.628 54.754 54.681 54.661 54.618 54.508 54.470 54.462 54.453 54.450 54.446 54.446 54.442 54.446 54.449 54.449 54.453 54.456 54.453 54.452 54.452 54.449 54.445 54.439 54.433 54.429 54.423 54.414 54.403 54.397 54.384 54.360 54.345 54.348 54.372 54.396 54.406 54.416 54.427 54.440 54.454 54.458 54.468 54.481 54.502 54.497 54.501 54.502 54.506 54.508 54.508 54.508 54.504 54.500 54.508 54.513 54.513 54.505 54.509 54.520 54.518 54.513 54.513 54.512 54.505 54.511 54.528 54.527 54.660 54.660 54.559 54.584 54.637 54.684 54.716 54.758 54.799 54.847 54.909 54.975 55.040 55.109 55.152 55.189 55.234 55.236 55.242 55.259 55.297 55.339 55.390 55.442 55.456 55.444 55.464 55.485 55.506 55.511 55.508 55.507 55.510 55.506 55.498 55.466 55.443 55.419 55.362 55.304 55.242 55.199 55.144 55.098 55.038 54.985 54.921 54.902 54.917 54.934 54.992 55.039 55.062 55.320 55.365 55.405 55.448 55.404 55.401 55.438 54.927 54.924 54.922 54.919 54.916 54.913 54.910 54.907 54.905 54.902
53.441 53.462 53.482 53.503 53.524 53.544 53.565 53.585 53.606 53.613 53.616 53.619 53.607 53.600 53.602 53.598 53.593 53.585 53.581 53.585 53.577 53.578 53.576 53.581 53.585 53.586 53.587 53.587 53.587 53.587 53.584 53.583 53.590 53.591 53.593 53.595 53.602 53.614 53.627 53.635 53.639 53.645 53.647 53.646 53.642 53.639 53.639 53.641 53.649 53.650 53.647 53.640 53.629 53.612 53.597 53.591 53.585 53.580 53.578 53.577 53.570 53.568 53.565 53.564 53.564 53.565 53.568 53.567 53.570 53.574 53.575 53.573 53.568 53.563 53.568 53.558 53.547 53.548 53.542 53.537 53.529 53.522 53.528 53.539 53.535 53.534 53.534 53.532 53.542 53.541 53.537 53.536 53.539 53.548 53.552 53.554 53.554 53.555 53.563 53.569 53.572 53.572 53.576 53.575 53.575 53.571 53.569 53.567 53.564 53.568 53.571 53.574 53.567 53.571 53.582 53.575 53.569 53.564 53.566 53.572 53.579 53.586 53.591 53.611 53.621 53.626 53.618 53.613 53.619 53.605 53.628 53.650 53.645 53.638 53.649 53.634 53.621 53.620 53.640 53.645 53.682 53.732 53.761 53.698 53.743 53.758 53.757 53.738 53.752 53.759 53.765 53.770 53.762 53.794 53.849 53.894 53.820 53.776 53.746 53.778 53.776 53.765 53.742 53.736 53.740 53.735 53.737 53.744 53.750 53.749 53.752 53.754 53.751 53.753 53.755 53.759 53.761 53.769 53.772 53.767 53.757 53.757 53.766 53.785 53.801 53.812 53.827 53.840 53.864 53.873 53.890 53.923 53.965 54.038 54.063 54.057 54.082 54.096 54.110 54.168 54.242 54.269 54.315 54.358 54.371 54.430 54.474 54.497 54.530 54.538 54.575 54.583 54.597 54.592 54.576 54.581 54.586 54.598 54.625 54.625 54.630 54.596 54.594 54.615 54.700 54.677 54.647 54.637 54.632 54.654 54.642 54.554 54.509 54.482 54.463 54.455 54.447 54.443 54.440 54.438 54.440 54.441 54.444 54.445 54.448 54.451 54.449 54.449 54.449 54.446 54.443 54.434 54.431 54.427 54.420 54.408 54.395 54.389 54.379 54.351 54.335 54.336 54.363 54.376 54.403 54.412 54.427 54.438 54.451 54.457 54.467 54.482 54.499 54.495 54.496 54.496 54.495 54.498 54.503 54.499 54.496 54.496 54.508 54.518 54.519 54.508 54.510 54.518 54.517 54.514 54.512 54.506 54.502 54.508 54.524 54.580 54.652 54.646 54.671 54.606 54.662 54.703 54.724 54.790 54.808 54.859 54.904 54.961 55.029 55.101 55.141 55.165 55.204 55.224 55.253 55.275 55.353 55.363 55.405 55.421 55.425 55.477 55.493 55.541 55.534 55.532 55.538 55.539 55.537 55.524 55.498 55.464 55.425 55.390 55.343 55.267 55.224 55.178 55.128 55.089 55.034 54.976 54.921 54.892 54.888 54.915 54.947 55.006 55.038 55.320 55.175 55.373 55.406 55.362 55.371 55.408 55.539 54.921 54.918 54.915 54.912 54.909 54.906 54.903 54.900 54.898
53.445 53.465 53.485 53.505 53.525 53.545 53.565 53.585 53.605 53.618 53.619 53.622 53.616 53.611 53.604 53.593 53.588 53.581 53.575 53.575 53.576 53.569 53.569 53.572 53.573 53.568 53.576 53.585 53.585 53.589 53.583 53.577 53.576 53.580 53.586 53.589 53.599 53.606 53.617 53.626 53.630 53.634 53.638 53.642 53.642 53.640 53.640 53.643 53.647 53.648 53.645 53.634 53.620 53.607 53.596 53.590 53.587 53.583 53.579 53.576 53.569 53.566 53.564 53.566 53.564 53.565 53.569 53.569 53.569 53.569 53.570 53.571 53.567 53.566 53.564 53.556 53.545 53.539 53.539 53.537 53.529 53.520 53.529 53.540 53.535 53.536 53.539 53.540 53.544 53.539 53.535 53.535 53.543 53.548 53.551 53.552 53.555 53.560 53.565 53.569 53.572 53.575 53.578 53.580 53.575 53.569 53.566 53.566 53.565 53.566 53.570 53.569 53.567 53.574 53.581 53.576 53.574 53.572 53.573 53.579 53.581 53.584 53.587 53.601 53.617 53.624 53.610 53.608 53.619 53.629 53.646 53.659 53.650 53.665 53.663 53.644 53.642 53.629 53.658 53.706 53.757 53.765 53.785 53.792 53.800 53.783 53.755 53.716 53.751 53.781 53.807 53.792 53.781 53.791 53.848 53.839 53.809 53.793 53.774 53.771 53.768 53.790 53.752 53.733 53.738 53.738 53.738 53.748 53.756 53.754 53.751 53.752 53.751 53.752 53.760 53.766 53.765 53.763 53.767 53.767 53.767 53.770 53.785 53.785 53.795 53.810 53.820 53.836 53.849 53.863 53.891 53.923 53.943 53.981 54.053 54.047 54.060 54.089 54.100 54.153 54.223 54.246 54.276 54.308 54.361 54.446 54.461 54.488 54.528 54.559 54.595 54.590 54.574 54.607 54.579 54.576 54.570 54.598 54.601 54.571 54.621 54.613 54.613 54.633 54.642 54.682 54.669 54.653 54.653 54.649 54.621 54.511 54.480 54.466 54.454 54.447 54.441 54.439 54.435 54.433 54.435 54.437 54.437 54.438 54.444 54.445 54.446 54.447 54.445 54.444 54.439 54.430 54.429 54.423 54.416 54.406 54.392 54.378 54.366 54.344 54.320 54.326 54.347 54.369 54.399 54.412 54.425 54.437 54.444 54.450 54.461 54.474 54.493 54.491 54.486 54.489 54.492 54.494 54.495 54.491 54.487 54.493 54.507 54.513 54.514 54.509 54.506 54.510 54.515 54.514 54.512 54.505 54.502 54.507 54.566 54.589 54.591 54.618 54.624 54.634 54.664 54.711 54.721 54.829 54.838 54.858 54.896 54.951 55.019 55.088 55.112 55.150 55.189 55.213 55.253 55.296 55.341 55.383 55.429 55.437 55.454 55.519 55.547 55.544 55.540 55.542 55.545 55.543 55.542 55.524 55.494 55.458 55.410 55.366 55.323 55.255 55.190 55.153 55.111 55.064 55.021 54.978 54.917 54.875 54.868 54.894 54.932 54.998 55.066 55.175 55.176 55.220 55.354 55.334 55.348 55.390 55.420 54.917 54.914 54.911 54.908 54.905 54.902 54.899 54.896 54.893
53.449 53.468 53.488 53.507 53.526 53.546 53.565 53.585 53.604 53.613 53.615 53.619 53.619 53.615 53.602 53.590 53.585 53.582 53.577 53.573 53.571 53.571 53.573 53.574 53.573 53.573 53.576 53.590 53.591 53.598 53.590 53.584 53.581 53.584 53.590 53.590 53.594 53.599 53.613 53.621 53.627 53.632 53.633 53.636 53.644 53.640 53.638 53.643 53.646 53.645 53.640 53.631 53.617 53.605 53.598 53.591 53.587 53.583 53.579 53.575 53.570 53.567 53.564 53.565 53.566 53.568 53.569 53.569 53.569 53.573 53.573 53.569 53.567 53.574 53.568 53.558 53.546 53.537 53.538 53.538 53.530 53.517 53.531 53.541 53.536 53.534 53.541 53.544 53.540 53.535 53.533 53.539 53.542 53.548 53.549 53.551 53.554 53.561 53.566 53.568 53.571 53.574 53.578 53.578 53.576 53.572 53.570 53.566 53.566 53.568 53.571 53.572 53.571 53.577 53.581 53.579 53.574 53.575 53.576 53.583 53.581 53.583 53.585 53.592 53.599 53.613 53.610 53.618 53.648 53.662 53.659 53.655 53.636 53.628 53.654 53.653 53.644 53.664 53.674 53.693 53.753 53.772 53.785 53.809 53.809 53.770 53.770 53.764 53.726 53.725 53.785 53.816 53.815 53.814 53.809 53.792 53.840 53.803 53.788 53.768 53.760 53.739 53.734 53.730 53.736 53.745 53.742 53.747 53.750 53.753 53.757 53.754 53.750 53.757 53.760 53.764 53.765 53.767 53.773 53.773 53.771 53.774 53.782 53.781 53.794 53.808 53.829 53.826 53.837 53.868 53.922 53.966 53.938 53.984 54.069 54.040 54.076 54.102 54.102 54.145 54.211 54.245 54.262 54.295 54.350 54.421 54.448 54.507 54.546 54.573 54.610 54.605 54.609 54.606 54.585 54.589 54.564 54.590 54.587 54.559 54.577 54.601 54.622 54.641 54.659 54.704 54.699 54.654 54.651 54.651 54.568 54.491 54.478 54.465 54.449 54.439 54.434 54.433 54.429 54.426 54.432 54.431 54.432 54.437 54.442 54.441 54.441 54.444 54.441 54.439 54.433 54.427 54.425 54.420 54.412 54.402 54.391 54.374 54.358 54.342 54.315 54.319 54.337 54.367 54.397 54.411 54.429 54.435 54.439 54.446 54.454 54.459 54.472 54.475 54.477 54.480 54.485 54.489 54.488 54.490 54.486 54.491 54.497 54.503 54.507 54.505 54.506 54.504 54.510 54.511 54.512 54.511 54.508 54.524 54.556 54.606 54.615 54.625 54.645 54.628 54.654 54.691 54.767 54.797 54.837 54.843 54.870 54.935 55.017 55.064 55.073 55.108 55.161 55.211 55.251 55.290 55.336 55.396 55.441 55.482 55.511 55.526 55.534 55.557 55.544 55.545 55.546 55.541 55.532 55.511 55.486 55.461 55.382 55.333 55.295 55.220 55.157 55.117 55.074 55.033 54.996 54.955 54.900 54.881 54.861 54.870 54.918 54.987 55.040 55.119 55.163 55.200 55.272 55.299 55.334 55.373 55.390 54.913 54.910 54.907 54.904 54.901 54.898 54.895 54.892 54.889
53.452 53.471 53.490 53.509 53.528 53.547 53.566 53.584 53.603 53.608 53.610 53.611 53.612 53.605 53.595 53.586 53.580 53.581 53.578 53.580 53.574 53.573 53.573 53.575 53.576 53.578 53.579 53.582 53.586 53.585 53.581 53.581 53.584 53.588 53.590 53.587 53.592 53.601 53.610 53.621 53.626 53.631 53.632 53.636 53.642 53.637 53.635 53.636 53.641 53.642 53.638 53.635 53.623 53.611 53.603 53.592 53.587 53.584 53.579 53.575 53.569 53.567 53.569 53.568 53.569 53.571 53.569 53.569 53.569 53.571 53.572 53.569 53.579 53.597 53.588 53.599 53.545 53.538 53.537 53.534 53.530 53.522 53.532 53.539 53.538 53.534 53.535 53.542 53.539 53.536 53.534 53.540 53.542 53.547 53.549 53.552 53.555 53.561 53.568 53.570 53.572 53.579 53.580 53.581 53.577 53.572 53.567 53.565 53.564 53.568 53.575 53.574 53.571 53.580 53.583 53.579 53.576 53.576 53.577 53.595 53.593 53.587 53.591 53.589 53.595 53.606 53.602 53.643 53.678 53.678 53.666 53.665 53.639 53.610 53.637 53.635 53.632 53.645 53.677 53.701 53.728 53.745 53.763 53.790 53.781 53.762 53.770 53.753 53.734 53.709 53.846 53.925 53.856 53.804 53.804 53.796 53.809 53.783 53.761 53.750 53.752 53.723 53.728 53.731 53.743 53.755 53.757 53.747 53.745 53.748 53.750 53.752 53.751 53.758 53.758 53.762 53.763 53.769 53.779 53.776 53.774 53.772 53.775 53.779 53.782 53.792 53.806 53.817 53.837 53.870 53.908 53.938 53.944 53.994 54.050 54.052 54.082 54.096 54.112 54.151 54.203 54.260 54.307 54.318 54.334 54.383 54.463 54.546 54.565 54.581 54.604 54.635 54.619 54.589 54.590 54.589 54.596 54.617 54.612 54.609 54.575 54.583 54.632 54.658 54.671 54.681 54.706 54.686 54.670 54.647 54.575 54.480 54.462 54.451 54.444 54.433 54.429 54.430 54.424 54.421 54.424 54.425 54.428 54.433 54.438 54.438 54.439 54.439 54.435 54.430 54.426 54.424 54.422 54.417 54.408 54.397 54.387 54.371 54.352 54.324 54.298 54.308 54.329 54.369 54.398 54.411 54.428 54.433 54.437 54.444 54.448 54.452 54.460 54.468 54.470 54.473 54.478 54.481 54.482 54.483 54.483 54.488 54.492 54.491 54.497 54.505 54.500 54.500 54.506 54.511 54.512 54.525 54.516 54.546 54.577 54.604 54.618 54.625 54.651 54.641 54.645 54.681 54.719 54.731 54.787 54.839 54.870 54.914 55.019 55.028 55.045 55.084 55.142 55.229 55.253 55.290 55.339 55.407 55.449 55.489 55.505 55.537 55.540 55.555 55.578 55.565 55.561 55.548 55.526 55.506 55.468 55.428 55.356 55.301 55.241 55.179 55.130 55.082 55.034 54.998 54.964 54.934 54.892 54.866 54.841 54.849 54.919 54.980 55.013 55.100 55.137 55.184 55.242 55.269 55.304 55.344 55.363 54.909 54.906 54.903 54.900 54.897 54.894 54.891 54.888 54.885
53.456 53.474 53.493 53.511 53.529 53.548 53.566 53.584 53.602 53.609 53.609 53.608 53.606 53.598 53.592 53.582 53.577 53.578 53.578 53.578 53.576 53.574 53.574 53.575 53.575 53.577 53.579 53.582 53.583 53.583 53.582 53.580 53.583 53.587 53.588 53.591 53.594 53.606 53.618 53.623 53.630 53.631 53.634 53.635 53.637 53.636 53.634 53.636 53.637 53.640 53.638 53.638 53.629 53.614 53.602 53.597 53.589 53.583 53.581 53.575 53.570 53.566 53.571 53.566 53.568 53.572 53.570 53.571 53.571 53.570 53.567 53.571 53.580 53.604 53.589 53.581 53.542 53.537 53.537 53.534 53.533 53.521 53.533 53.541 53.543 53.537 53.539 53.542 53.537 53.535 53.535 53.541 53.543 53.545 53.549 53.552 53.554 53.561 53.566 53.569 53.576 53.581 53.584 53.583 53.579 53.573 53.568 53.565 53.565 53.569 53.576 53.575 53.572 53.584 53.584 53.580 53.578 53.577 53.578 53.592 53.595 53.585 53.590 53.593 53.596 53.598 53.601 53.645 53.694 53.669 53.648 53.653 53.643 53.611 53.608 53.608 53.613 53.632 53.675 53.719 53.694 53.686 53.731 53.749 53.767 53.740 53.739 53.715 53.716 53.706 53.752 53.808 53.826 53.814 53.818 53.777 53.773 53.796 53.785 53.756 53.737 53.730 53.731 53.742 53.749 53.747 53.750 53.745 53.746 53.748 53.754 53.750 53.755 53.759 53.754 53.762 53.764 53.766 53.777 53.782 53.778 53.774 53.770 53.775 53.778 53.780 53.790 53.805 53.824 53.859 53.892 53.916 53.933 53.975 54.018 54.056 54.086 54.106 54.125 54.159 54.208 54.255 54.334 54.366 54.355 54.381 54.451 54.514 54.543 54.581 54.613 54.661 54.640 54.601 54.606 54.584 54.603 54.613 54.596 54.591 54.577 54.582 54.615 54.674 54.703 54.685 54.682 54.712 54.679 54.601 54.534 54.465 54.451 54.441 54.433 54.424 54.420 54.422 54.418 54.411 54.415 54.420 54.425 54.430 54.432 54.433 54.435 54.433 54.429 54.426 54.422 54.421 54.419 54.414 54.406 54.396 54.389 54.376 54.343 54.306 54.290 54.309 54.344 54.375 54.397 54.412 54.425 54.430 54.432 54.440 54.445 54.449 54.456 54.460 54.467 54.469 54.475 54.476 54.474 54.476 54.476 54.486 54.489 54.481 54.485 54.492 54.489 54.501 54.503 54.505 54.520 54.532 54.536 54.538 54.559 54.598 54.607 54.605 54.633 54.629 54.615 54.639 54.714 54.739 54.775 54.803 54.843 54.884 54.942 54.984 55.019 55.070 55.133 55.194 55.239 55.294 55.342 55.393 55.455 55.479 55.495 55.514 55.527 55.541 55.552 55.554 55.542 55.520 55.503 55.473 55.430 55.383 55.333 55.314 55.311 55.164 55.099 55.052 55.003 54.973 54.948 54.909 54.869 54.849 54.829 54.877 54.930 54.962 54.979 55.050 55.118 55.142 55.198 55.240 55.275 55.298 55.327 54.905 54.902 54.899 54.896 54.893 54.890 54.887 54.884 54.881
53.460 53.478 53.495 53.513 53.531 53.549 53.566 53.584 53.602 53.610 53.611 53.609 53.602 53.593 53.587 53.579 53.574 53.577 53.579 53.577 53.575 53.577 53.576 53.575 53.577 53.580 53.579 53.581 53.587 53.587 53.587 53.588 53.588 53.585 53.587 53.593 53.596 53.611 53.622 53.623 53.628 53.630 53.628 53.629 53.633 53.635 53.633 53.632 53.635 53.639 53.640 53.638 53.622 53.614 53.606 53.601 53.598 53.590 53.582 53.576 53.572 53.566 53.565 53.566 53.570 53.571 53.567 53.570 53.572 53.571 53.570 53.570 53.578 53.581 53.567 53.551 53.537 53.537 53.541 53.540 53.537 53.527 53.538 53.546 53.545 53.538 53.538 53.541 53.535 53.538 53.537 53.541 53.544 53.545 53.548 53.551 53.552 53.564 53.567 53.570 53.576 53.581 53.584 53.582 53.578 53.572 53.567 53.565 53.567 53.570 53.574 53.572 53.571 53.585 53.585 53.579 53.578 53.579 53.581 53.587 53.589 53.582 53.588 53.590 53.597 53.601 53.610 53.633 53.666 53.664 53.651 53.653 53.640 53.618 53.593 53.587 53.590 53.638 53.678 53.683 53.685 53.689 53.671 53.719 53.761 53.745 53.742 53.699 53.735 53.742 53.773 53.801 53.813 53.815 53.825 53.793 53.791 53.800 53.792 53.762 53.753 53.754 53.754 53.750 53.739 53.739 53.743 53.744 53.745 53.749 53.756 53.749 53.750 53.752 53.756 53.763 53.773 53.771 53.776 53.783 53.781 53.785 53.774 53.774 53.775 53.780 53.789 53.796 53.807 53.838 53.866 53.905 53.936 53.992 54.011 54.033 54.077 54.109 54.131 54.143 54.187 54.239 54.363 54.379 54.381 54.384 54.424 54.469 54.532 54.561 54.617 54.662 54.679 54.621 54.613 54.578 54.572 54.572 54.568 54.567 54.582 54.558 54.559 54.616 54.636 54.650 54.690 54.717 54.716 54.617 54.523 54.447 54.441 54.433 54.424 54.415 54.410 54.413 54.409 54.404 54.408 54.414 54.422 54.426 54.429 54.431 54.431 54.427 54.424 54.422 54.417 54.417 54.414 54.408 54.402 54.392 54.382 54.362 54.342 54.304 54.287 54.311 54.349 54.377 54.396 54.412 54.425 54.428 54.429 54.434 54.440 54.445 54.450 54.453 54.459 54.468 54.473 54.471 54.468 54.470 54.477 54.484 54.483 54.476 54.479 54.486 54.481 54.494 54.502 54.515 54.524 54.546 54.544 54.528 54.526 54.528 54.561 54.598 54.624 54.652 54.649 54.620 54.681 54.721 54.752 54.778 54.825 54.896 54.915 54.944 54.980 55.052 55.125 55.186 55.259 55.302 55.330 55.394 55.455 55.471 55.476 55.500 55.507 55.517 55.525 55.527 55.511 55.493 55.470 55.435 55.391 55.347 55.290 55.315 55.294 55.125 55.067 55.028 54.975 54.944 54.914 54.891 54.858 54.853 54.818 54.936 54.914 54.923 54.964 54.999 55.071 55.110 55.156 55.191 55.232 55.258 55.284 54.901 54.898 54.895 54.892 54.889 54.886 54.883 54.880 54.877
53.464 53.481 53.498 53.515 53.532 53.549 53.567 53.584 53.601 53.607 53.610 53.607 53.599 53.589 53.579 53.571 53.568 53.572 53.575 53.575 53.572 53.575 53.577 53.576 53.578 53.582 53.583 53.584 53.588 53.587 53.589 53.591 53.590 53.591 53.600 53.604 53.608 53.619 53.627 53.629 53.635 53.635 53.632 53.633 53.636 53.638 53.638 53.636 53.636 53.639 53.640 53.637 53.623 53.615 53.611 53.610 53.601 53.598 53.588 53.577 53.572 53.568 53.564 53.562 53.563 53.566 53.566 53.567 53.570 53.573 53.572 53.572 53.579 53.578 53.560 53.545 53.542 53.542 53.540 53.537 53.537 53.527 53.540 53.546 53.542 53.538 53.537 53.540 53.537 53.538 53.539 53.541 53.544 53.548 53.549 53.552 53.554 53.566 53.566 53.570 53.575 53.578 53.585 53.582 53.577 53.574 53.567 53.564 53.564 53.569 53.577 53.572 53.572 53.583 53.584 53.580 53.579 53.580 53.583 53.583 53.576 53.580 53.589 53.591 53.606 53.618 53.613 53.628 53.655 53.668 53.657 53.636 53.628 53.614 53.608 53.595 53.593 53.625 53.644 53.674 53.682 53.652 53.717 53.741 53.763 53.733 53.720 53.714 53.700 53.758 53.783 53.807 53.827 53.822 53.813 53.806 53.800 53.800 53.768 53.743 53.747 53.757 53.755 53.726 53.738 53.750 53.748 53.746 53.747 53.749 53.753 53.755 53.754 53.765 53.764 53.756 53.766 53.772 53.775 53.779 53.780 53.781 53.786 53.780 53.778 53.781 53.784 53.790 53.800 53.826 53.844 53.895 53.928 53.976 54.010 54.012 54.060 54.091 54.144 54.141 54.179 54.263 54.337 54.366 54.363 54.379 54.407 54.441 54.513 54.551 54.589 54.671 54.665 54.643 54.598 54.557 54.548 54.543 54.543 54.531 54.522 54.531 54.528 54.553 54.617 54.612 54.647 54.736 54.639 54.711 54.483 54.442 54.435 54.423 54.417 54.406 54.406 54.405 54.400 54.399 54.401 54.410 54.418 54.424 54.426 54.427 54.425 54.422 54.421 54.416 54.412 54.410 54.410 54.402 54.396 54.391 54.377 54.357 54.332 54.298 54.284 54.321 54.355 54.380 54.394 54.409 54.416 54.420 54.422 54.428 54.435 54.439 54.444 54.448 54.459 54.466 54.468 54.468 54.466 54.467 54.476 54.490 54.486 54.469 54.477 54.484 54.476 54.478 54.494 54.519 54.515 54.513 54.499 54.507 54.514 54.514 54.548 54.597 54.613 54.639 54.643 54.617 54.631 54.674 54.714 54.760 54.798 54.874 54.897 54.926 54.964 55.024 55.103 55.173 55.258 55.296 55.329 55.382 55.430 55.463 55.461 55.486 55.497 55.520 55.515 55.510 55.491 55.474 55.440 55.401 55.353 55.314 55.247 55.250 55.234 55.075 55.039 55.003 54.951 54.925 54.892 54.861 54.839 54.821 54.803 54.816 54.878 54.889 54.934 54.960 55.017 55.099 55.125 55.138 55.167 55.211 55.236 54.897 54.894 54.891 54.888 54.885 54.882 54.879 54.876 54.873
53.467 53.484 53.501 53.517 53.534 53.550 53.567 53.584 53.600 53.605 53.604 53.600 53.593 53.587 53.578 53.571 53.568 53.568 53.569 53.570 53.571 53.574 53.574 53.575 53.575 53.576 53.579 53.577 53.579 53.579 53.584 53.588 53.587 53.590 53.601 53.606 53.613 53.620 53.625 53.633 53.638 53.635 53.632 53.635 53.636 53.633 53.634 53.639 53.640 53.642 53.641 53.639 53.626 53.619 53.614 53.607 53.602 53.600 53.590 53.579 53.575 53.567 53.565 53.564 53.563 53.564 53.566 53.566 53.569 53.573 53.575 53.572 53.571 53.568 53.558 53.546 53.544 53.541 53.540 53.536 53.529 53.527 53.541 53.543 53.545 53.538 53.539 53.540 53.532 53.538 53.540 53.540 53.547 53.549 53.551 53.552 53.555 53.566 53.568 53.574 53.576 53.579 53.582 53.580 53.576 53.572 53.565 53.564 53.565 53.569 53.573 53.569 53.573 53.580 53.581 53.578 53.580 53.580 53.580 53.576 53.572 53.580 53.584 53.592 53.614 53.629 53.621 53.628 53.641 53.672 53.660 53.621 53.614 53.621 53.631 53.605 53.599 53.615 53.654 53.676 53.687 53.672 53.719 53.747 53.746 53.713 53.728 53.721 53.752 53.775 53.819 53.832 53.840 53.810 53.799 53.792 53.777 53.787 53.784 53.738 53.734 53.739 53.726 53.709 53.739 53.756 53.755 53.753 53.745 53.750 53.751 53.754 53.755 53.756 53.755 53.752 53.758 53.766 53.773 53.781 53.780 53.777 53.783 53.784 53.782 53.783 53.784 53.786 53.783 53.799 53.838 53.884 53.916 53.932 53.993 54.014 54.058 54.094 54.134 54.137 54.156 54.233 54.289 54.335 54.357 54.383 54.408 54.460 54.502 54.551 54.625 54.661 54.658 54.640 54.569 54.554 54.538 54.497 54.503 54.519 54.491 54.485 54.513 54.535 54.606 54.611 54.659 54.669 54.589 54.518 54.463 54.436 54.426 54.416 54.407 54.399 54.399 54.396 54.393 54.393 54.400 54.413 54.415 54.419 54.420 54.421 54.418 54.413 54.412 54.409 54.406 54.408 54.403 54.398 54.392 54.389 54.370 54.348 54.330 54.299 54.291 54.338 54.358 54.381 54.395 54.406 54.413 54.417 54.421 54.427 54.432 54.437 54.441 54.446 54.455 54.461 54.465 54.465 54.465 54.466 54.475 54.496 54.479 54.466 54.472 54.484 54.473 54.470 54.491 54.529 54.529 54.513 54.494 54.499 54.509 54.520 54.545 54.588 54.575 54.580 54.613 54.624 54.623 54.637 54.660 54.719 54.765 54.809 54.845 54.903 54.965 55.022 55.089 55.158 55.214 55.279 55.328 55.360 55.399 55.435 55.451 55.467 55.489 55.503 55.494 55.482 55.459 55.438 55.412 55.359 55.305 55.251 55.207 55.171 55.101 55.043 55.003 54.970 54.938 54.922 54.874 54.836 54.815 54.796 54.783 54.771 54.800 54.843 54.889 54.929 54.967 55.066 55.079 55.095 55.124 55.165 55.186 54.893 54.890 54.887 54.884 54.881 54.878 54.875 54.872 54.869
53.471 53.487 53.503 53.519 53.535 53.551 53.567 53.583 53.599 53.604 53.605 53.595 53.588 53.584 53.576 53.570 53.571 53.567 53.567 53.569 53.572 53.573 53.570 53.571 53.571 53.574 53.573 53.574 53.576 53.574 53.578 53.584 53.586 53.592 53.600 53.606 53.610 53.618 53.626 53.630 53.638 53.635 53.637 53.639 53.636 53.633 53.635 53.639 53.639 53.638 53.637 53.633 53.624 53.620 53.612 53.601 53.596 53.592 53.584 53.577 53.579 53.569 53.563 53.560 53.560 53.562 53.565 53.566 53.568 53.572 53.575 53.574 53.571 53.564 53.558 53.546 53.539 53.539 53.540 53.533 53.526 53.525 53.540 53.542 53.545 53.538 53.535 53.538 53.537 53.538 53.541 53.542 53.548 53.547 53.550 53.552 53.559 53.567 53.570 53.574 53.576 53.581 53.581 53.578 53.573 53.570 53.563 53.563 53.566 53.569 53.573 53.564 53.572 53.582 53.582 53.579 53.580 53.580 53.580 53.581 53.580 53.586 53.588 53.597 53.606 53.615 53.607 53.607 53.624 53.654 53.610 53.620 53.621 53.640 53.646 53.607 53.607 53.621 53.657 53.689 53.694 53.699 53.704 53.728 53.716 53.718 53.717 53.741 53.772 53.817 53.820 53.810 53.822 53.781 53.792 53.794 53.778 53.804 53.785 53.742 53.738 53.728 53.724 53.712 53.741 53.747 53.750 53.750 53.745 53.750 53.754 53.757 53.758 53.757 53.757 53.762 53.771 53.770 53.769 53.774 53.774 53.773 53.777 53.784 53.788 53.776 53.773 53.778 53.780 53.793 53.833 53.874 53.899 53.932 53.976 54.013 54.048 54.076 54.130 54.146 54.152 54.209 54.281 54.309 54.335 54.388 54.411 54.447 54.490 54.528 54.594 54.640 54.667 54.631 54.583 54.553 54.532 54.483 54.478 54.488 54.474 54.480 54.496 54.505 54.568 54.606 54.633 54.622 54.582 54.527 54.454 54.426 54.415 54.407 54.399 54.394 54.394 54.387 54.386 54.389 54.396 54.405 54.409 54.414 54.416 54.416 54.409 54.406 54.406 54.404 54.403 54.403 54.396 54.393 54.389 54.382 54.359 54.344 54.324 54.302 54.302 54.343 54.358 54.382 54.392 54.400 54.408 54.414 54.422 54.427 54.434 54.437 54.439 54.445 54.453 54.461 54.464 54.466 54.462 54.464 54.477 54.489 54.471 54.463 54.466 54.476 54.465 54.463 54.487 54.516 54.540 54.518 54.507 54.499 54.511 54.528 54.560 54.577 54.552 54.552 54.587 54.659 54.671 54.637 54.634 54.683 54.733 54.776 54.822 54.890 54.981 55.032 55.105 55.143 55.192 55.257 55.302 55.328 55.369 55.399 55.424 55.442 55.453 55.470 55.459 55.444 55.414 55.388 55.363 55.306 55.254 55.216 55.175 55.124 55.072 55.024 54.971 54.937 54.913 54.880 54.846 54.809 54.793 54.777 54.768 54.757 54.765 54.812 54.856 54.879 54.922 54.970 55.019 55.057 55.094 55.131 55.149 54.890 54.886 54.883 54.880 54.877 54.874 54.871 54.868 54.864
53.475 53.490 53.506 53.521 53.537 53.552 53.568 53.583 53.599 53.603 53.604 53.596 53.588 53.581 53.576 53.576 53.583 53.573 53.573 53.571 53.572 53.573 53.572 53.571 53.570 53.573 53.569 53.569 53.574 53.573 53.576 53.581 53.587 53.595 53.601 53.607 53.606 53.611 53.621 53.625 53.626 53.630 53.636 53.638 53.638 53.635 53.636 53.636 53.636 53.636 53.634 53.627 53.624 53.623 53.612 53.599 53.590 53.582 53.577 53.573 53.577 53.570 53.563 53.559 53.560 53.562 53.563 53.567 53.568 53.571 53.575 53.577 53.577 53.564 53.559 53.553 53.544 53.543 53.540 53.535 53.525 53.528 53.541 53.544 53.540 53.534 53.535 53.543 53.539 53.541 53.542 53.543 53.548 53.550 53.553 53.556 53.560 53.566 53.571 53.576 53.579 53.581 53.581 53.576 53.572 53.570 53.566 53.565 53.565 53.570 53.569 53.564 53.571 53.580 53.583 53.581 53.584 53.585 53.588 53.592 53.585 53.600 53.596 53.593 53.603 53.604 53.606 53.614 53.613 53.611 53.608 53.616 53.639 53.638 53.609 53.595 53.613 53.650 53.678 53.705 53.697 53.704 53.695 53.693 53.714 53.736 53.733 53.726 53.792 53.832 53.808 53.779 53.794 53.765 53.788 53.800 53.811 53.821 53.770 53.756 53.747 53.725 53.716 53.711 53.741 53.751 53.744 53.746 53.749 53.749 53.753 53.760 53.762 53.759 53.758 53.760 53.760 53.759 53.763 53.769 53.769 53.772 53.774 53.777 53.783 53.780 53.778 53.781 53.783 53.790 53.829 53.858 53.906 53.931 53.967 53.987 54.017 54.055 54.097 54.121 54.144 54.182 54.233 54.280 54.327 54.380 54.397 54.407 54.465 54.492 54.507 54.574 54.585 54.609 54.571 54.545 54.518 54.502 54.488 54.501 54.499 54.493 54.490 54.503 54.521 54.562 54.583 54.565 54.545 54.476 54.435 54.415 54.406 54.400 54.392 54.391 54.386 54.382 54.380 54.383 54.392 54.399 54.403 54.407 54.410 54.409 54.403 54.400 54.399 54.399 54.398 54.396 54.391 54.387 54.385 54.371 54.354 54.333 54.321 54.305 54.305 54.339 54.362 54.380 54.391 54.394 54.400 54.407 54.416 54.422 54.431 54.433 54.438 54.445 54.451 54.456 54.456 54.458 54.456 54.461 54.483 54.486 54.470 54.460 54.465 54.479 54.470 54.463 54.481 54.498 54.510 54.503 54.502 54.504 54.513 54.528 54.544 54.557 54.557 54.561 54.683 54.687 54.719 54.718 54.667 54.659 54.691 54.746 54.799 54.897 54.949 55.037 55.079 55.113 55.161 55.225 55.263 55.298 55.331 55.366 55.388 55.401 55.410 55.424 55.409 55.389 55.365 55.331 55.297 55.257 55.207 55.172 55.130 55.084 55.049 54.999 54.941 54.919 54.891 54.850 54.817 54.794 54.764 54.743 54.735 54.742 54.760 54.812 54.827 54.839 54.877 54.917 54.964 55.035 55.053 55.082 55.110 54.886 54.882 54.879 54.876 54.873 54.870 54.867 54.864 54.860
53.479 53.494 53.509 53.524 53.538 53.553 53.568 53.583 53.598 53.603 53.602 53.597 53.592 53.585 53.579 53.575 53.577 53.571 53.573 53.573 53.571 53.572 53.572 53.571 53.569 53.568 53.566 53.568 53.567 53.569 53.573 53.580 53.591 53.595 53.603 53.600 53.602 53.608 53.620 53.621 53.620 53.626 53.635 53.640 53.636 53.634 53.637 53.634 53.633 53.635 53.631 53.624 53.621 53.620 53.609 53.596 53.584 53.580 53.575 53.574 53.574 53.566 53.565 53.563 53.562 53.560 53.562 53.566 53.569 53.573 53.574 53.573 53.570 53.565 53.562 53.558 53.545 53.547 53.540 53.534 53.524 53.529 53.541 53.549 53.541 53.531 53.534 53.547 53.541 53.541 53.542 53.544 53.551 53.555 53.554 53.558 53.564 53.569 53.572 53.579 53.581 53.581 53.581 53.575 53.571 53.567 53.566 53.565 53.565 53.571 53.570 53.567 53.574 53.582 53.584 53.584 53.586 53.588 53.591 53.597 53.591 53.591 53.588 53.593 53.617 53.616 53.592 53.590 53.610 53.618 53.619 53.619 53.618 53.627 53.594 53.594 53.633 53.674 53.698 53.700 53.715 53.709 53.669 53.662 53.701 53.748 53.779 53.756 53.765 53.783 53.801 53.797 53.741 53.748 53.761 53.782 53.787 53.820 53.798 53.757 53.739 53.748 53.735 53.722 53.737 53.744 53.743 53.748 53.751 53.753 53.761 53.763 53.757 53.757 53.759 53.755 53.754 53.754 53.760 53.765 53.774 53.780 53.778 53.779 53.778 53.778 53.784 53.791 53.786 53.789 53.813 53.832 53.910 53.975 53.971 53.978 53.998 54.030 54.071 54.104 54.136 54.173 54.210 54.266 54.321 54.365 54.384 54.394 54.428 54.447 54.471 54.539 54.544 54.534 54.511 54.516 54.510 54.522 54.491 54.504 54.508 54.509 54.497 54.491 54.491 54.519 54.546 54.527 54.482 54.442 54.419 54.406 54.397 54.393 54.386 54.383 54.377 54.375 54.374 54.377 54.387 54.394 54.399 54.403 54.405 54.402 54.400 54.395 54.394 54.391 54.391 54.388 54.383 54.381 54.378 54.358 54.343 54.328 54.334 54.316 54.310 54.340 54.366 54.376 54.384 54.390 54.398 54.405 54.411 54.420 54.427 54.431 54.439 54.445 54.448 54.451 54.450 54.451 54.452 54.456 54.476 54.492 54.472 54.462 54.465 54.477 54.472 54.466 54.467 54.483 54.494 54.502 54.499 54.504 54.516 54.540 54.569 54.573 54.577 54.637 54.682 54.684 54.698 54.713 54.715 54.665 54.665 54.748 54.808 54.861 54.896 55.001 55.083 55.130 55.144 55.192 55.230 55.260 55.297 55.325 55.348 55.366 55.371 55.370 55.362 55.334 55.307 55.277 55.254 55.216 55.171 55.136 55.087 55.051 55.013 54.966 54.923 54.896 54.863 54.833 54.802 54.775 54.726 54.698 54.694 54.722 54.749 54.765 54.775 54.799 54.849 54.890 54.956 54.998 55.004 55.016 55.037 54.882 54.879 54.875 54.872 54.869 54.866 54.863 54.859 54.856
53.483 53.497 53.511 53.526 53.540 53.554 53.569 53.583 53.597 53.604 53.600 53.600 53.595 53.596 53.590 53.584 53.580 53.582 53.572 53.573 53.573 53.572 53.570 53.571 53.571 53.569 53.566 53.565 53.566 53.567 53.571 53.576 53.586 53.590 53.593 53.595 53.597 53.605 53.629 53.631 53.623 53.629 53.638 53.644 53.637 53.634 53.635 53.632 53.630 53.628 53.625 53.619 53.613 53.612 53.604 53.594 53.584 53.582 53.575 53.570 53.566 53.563 53.563 53.563 53.560 53.560 53.566 53.569 53.571 53.574 53.575 53.575 53.568 53.562 53.559 53.548 53.543 53.543 53.536 53.536 53.526 53.529 53.540 53.537 53.537 53.532 53.541 53.540 53.540 53.542 53.544 53.547 53.551 53.554 53.556 53.558 53.567 53.568 53.573 53.578 53.579 53.581 53.579 53.575 53.570 53.567 53.565 53.567 53.567 53.568 53.568 53.568 53.579 53.585 53.584 53.585 53.588 53.590 53.592 53.594 53.592 53.597 53.603 53.593 53.605 53.615 53.598 53.588 53.605 53.609 53.611 53.602 53.601 53.629 53.647 53.622 53.625 53.664 53.658 53.653 53.682 53.720 53.703 53.685 53.722 53.745 53.787 53.788 53.801 53.780 53.768 53.785 53.757 53.727 53.719 53.760 53.770 53.826 53.792 53.771 53.772 53.759 53.740 53.731 53.727 53.736 53.746 53.755 53.760 53.758 53.764 53.766 53.757 53.756 53.757 53.755 53.755 53.758 53.762 53.769 53.777 53.784 53.784 53.789 53.785 53.780 53.790 53.791 53.790 53.802 53.825 53.862 53.915 53.933 53.952 53.984 54.002 54.020 54.057 54.100 54.135 54.168 54.208 54.261 54.318 54.334 54.366 54.381 54.403 54.424 54.456 54.496 54.517 54.479 54.483 54.489 54.497 54.544 54.549 54.523 54.515 54.501 54.500 54.491 54.468 54.481 54.510 54.493 54.448 54.421 54.405 54.396 54.388 54.385 54.380 54.377 54.372 54.368 54.369 54.376 54.383 54.389 54.395 54.398 54.399 54.394 54.391 54.388 54.388 54.385 54.388 54.382 54.378 54.379 54.374 54.342 54.322 54.309 54.318 54.305 54.312 54.344 54.362 54.372 54.379 54.384 54.393 54.403 54.410 54.420 54.422 54.433 54.441 54.443 54.445 54.445 54.445 54.446 54.447 54.456 54.470 54.485 54.470 54.463 54.466 54.479 54.472 54.468 54.469 54.479 54.493 54.495 54.501 54.506 54.519 54.531 54.584 54.577 54.581 54.607 54.653 54.683 54.692 54.701 54.709 54.646 54.660 54.756 54.800 54.820 54.870 54.929 55.013 55.099 55.112 55.147 55.182 55.221 55.247 55.277 55.298 55.307 55.326 55.334 55.317 55.284 55.255 55.226 55.201 55.166 55.128 55.095 55.049 55.010 54.979 54.934 54.888 54.855 54.828 54.805 54.781 54.751 54.698 54.662 54.651 54.658 54.692 54.712 54.743 54.764 54.827 54.883 54.930 54.953 54.950 54.966 54.979 54.878 54.875 54.871 54.868 54.865 54.862 54.859 54.855 54.852
53.487 53.500 53.514 53.528 53.542 53.555 53.569 53.583 53.596 53.599 53.595 53.598 53.609 53.653 53.647 53.600 53.585 53.573 53.572 53.572 53.573 53.573 53.573 53.567 53.567 53.565 53.563 53.565 53.565 53.563 53.566 53.571 53.575 53.583 53.591 53.595 53.596 53.601 53.612 53.619 53.624 53.630 53.637 53.637 53.637 53.635 53.633 53.632 53.629 53.624 53.614 53.610 53.608 53.605 53.599 53.592 53.586 53.582 53.572 53.568 53.567 53.567 53.566 53.560 53.560 53.560 53.565 53.571 53.574 53.578 53.576 53.575 53.570 53.563 53.557 53.549 53.544 53.539 53.539 53.540 53.522 53.531 53.538 53.536 53.535 53.540 53.547 53.543 53.542 53.541 53.543 53.548 53.553 53.556 53.558 53.562 53.568 53.570 53.573 53.577 53.578 53.578 53.577 53.573 53.569 53.566 53.564 53.564 53.565 53.572 53.566 53.567 53.584 53.590 53.584 53.584 53.587 53.587 53.595 53.598 53.596 53.597 53.612 53.605 53.597 53.592 53.595 53.592 53.590 53.592 53.602 53.617 53.613 53.623 53.642 53.645 53.605 53.616 53.634 53.638 53.647 53.680 53.716 53.733 53.725 53.764 53.791 53.810 53.800 53.772 53.752 53.755 53.733 53.715 53.737 53.725 53.738 53.800 53.767 53.746 53.759 53.736 53.726 53.726 53.728 53.742 53.747 53.756 53.760 53.759 53.762 53.763 53.758 53.752 53.753 53.755 53.753 53.758 53.769 53.773 53.778 53.780 53.793 53.803 53.793 53.780 53.789 53.795 53.800 53.826 53.860 53.912 53.942 53.949 53.950 53.977 53.995 54.025 54.052 54.105 54.137 54.163 54.198 54.235 54.283 54.333 54.364 54.381 54.392 54.402 54.420 54.449 54.452 54.452 54.448 54.477 54.495 54.526 54.557 54.535 54.528 54.527 54.529 54.514 54.471 54.462 54.464 54.459 54.429 54.404 54.393 54.385 54.382 54.375 54.371 54.367 54.365 54.364 54.364 54.372 54.378 54.386 54.390 54.393 54.392 54.386 54.383 54.383 54.379 54.380 54.381 54.376 54.370 54.374 54.367 54.337 54.310 54.296 54.277 54.285 54.315 54.346 54.360 54.369 54.374 54.381 54.388 54.397 54.410 54.417 54.419 54.431 54.439 54.442 54.444 54.439 54.438 54.441 54.448 54.457 54.465 54.475 54.464 54.462 54.461 54.480 54.469 54.468 54.471 54.477 54.491 54.497 54.503 54.508 54.512 54.517 54.559 54.593 54.592 54.632 54.649 54.698 54.719 54.711 54.712 54.652 54.649 54.704 54.761 54.792 54.837 54.901 54.969 55.030 55.072 55.116 55.143 55.175 55.188 55.215 55.232 55.246 55.248 55.246 55.245 55.221 55.200 55.182 55.164 55.129 55.100 55.057 55.028 54.987 54.948 54.902 54.846 54.821 54.794 54.762 54.758 54.755 54.702 54.636 54.606 54.605 54.618 54.672 54.702 54.697 54.699 54.863 54.910 54.930 54.894 54.906 54.928 54.874 54.871 54.868 54.864 54.861 54.858 54.855 54.851 54.848
53.490 53.504 53.517 53.530 53.543 53.556 53.569 53.583 53.596 53.597 53.595 53.592 53.612 53.640 53.620 53.601 53.581 53.571 53.571 53.569 53.564 53.569 53.585 53.572 53.564 53.565 53.565 53.564 53.563 53.563 53.563 53.566 53.571 53.578 53.589 53.594 53.595 53.599 53.608 53.617 53.622 53.628 53.633 53.636 53.633 53.635 53.634 53.627 53.618 53.612 53.611 53.607 53.605 53.603 53.600 53.593 53.586 53.580 53.573 53.570 53.570 53.568 53.568 53.561 53.563 53.563 53.564 53.569 53.573 53.578 53.578 53.572 53.569 53.561 53.553 53.547 53.544 53.535 53.542 53.543 53.523 53.535 53.538 53.532 53.536 53.544 53.545 53.543 53.544 53.541 53.547 53.551 53.555 53.557 53.556 53.561 53.569 53.570 53.572 53.573 53.575 53.576 53.575 53.573 53.570 53.564 53.563 53.564 53.566 53.573 53.568 53.570 53.586 53.587 53.584 53.583 53.586 53.589 53.596 53.602 53.606 53.606 53.619 53.610 53.597 53.593 53.595 53.596 53.593 53.593 53.606 53.622 53.622 53.620 53.616 53.609 53.598 53.592 53.620 53.629 53.653 53.694 53.698 53.689 53.731 53.789 53.799 53.835 53.826 53.779 53.771 53.732 53.711 53.700 53.711 53.725 53.733 53.765 53.735 53.724 53.732 53.730 53.738 53.731 53.734 53.748 53.747 53.752 53.756 53.757 53.761 53.758 53.751 53.753 53.756 53.764 53.756 53.760 53.767 53.774 53.778 53.783 53.796 53.800 53.785 53.781 53.787 53.793 53.804 53.841 53.881 53.921 53.955 53.961 53.955 53.981 53.992 54.038 54.072 54.112 54.131 54.162 54.195 54.224 54.282 54.325 54.352 54.370 54.385 54.386 54.398 54.414 54.419 54.443 54.451 54.475 54.500 54.523 54.538 54.550 54.548 54.555 54.550 54.552 54.496 54.470 54.455 54.443 54.407 54.394 54.381 54.375 54.374 54.367 54.363 54.361 54.361 54.357 54.361 54.368 54.376 54.382 54.386 54.390 54.386 54.378 54.376 54.377 54.371 54.373 54.371 54.366 54.367 54.367 54.351 54.324 54.300 54.286 54.265 54.271 54.323 54.348 54.358 54.364 54.370 54.374 54.380 54.393 54.406 54.409 54.414 54.427 54.436 54.436 54.435 54.435 54.433 54.435 54.452 54.455 54.457 54.467 54.459 54.451 54.452 54.469 54.463 54.465 54.467 54.473 54.487 54.493 54.499 54.495 54.496 54.504 54.531 54.547 54.552 54.600 54.633 54.700 54.719 54.697 54.712 54.688 54.620 54.663 54.717 54.763 54.845 54.883 54.932 54.992 55.036 55.066 55.097 55.124 55.135 55.153 55.173 55.178 55.186 55.189 55.188 55.170 55.158 55.141 55.117 55.097 55.068 55.028 55.003 54.978 54.919 54.854 54.812 54.783 54.768 54.741 54.747 54.737 54.708 54.653 54.569 54.561 54.575 54.614 54.663 54.650 54.681 54.778 54.894 54.844 54.835 54.846 54.846 54.870 54.867 54.864 54.860 54.857 54.854 54.851 54.847 54.844
53.494 53.507 53.520 53.532 53.545 53.557 53.570 53.582 53.595 53.593 53.592 53.589 53.587 53.590 53.591 53.580 53.577 53.571 53.573 53.572 53.570 53.571 53.582 53.576 53.558 53.559 53.559 53.563 53.563 53.567 53.566 53.565 53.568 53.578 53.585 53.593 53.597 53.602 53.610 53.617 53.623 53.627 53.633 53.636 53.635 53.634 53.634 53.625 53.617 53.608 53.606 53.605 53.604 53.603 53.603 53.592 53.582 53.578 53.575 53.568 53.566 53.563 53.569 53.565 53.560 53.563 53.563 53.566 53.573 53.580 53.577 53.572 53.569 53.564 53.553 53.545 53.544 53.541 53.545 53.539 53.524 53.532 53.535 53.537 53.542 53.548 53.546 53.545 53.547 53.545 53.548 53.552 53.555 53.558 53.559 53.562 53.569 53.571 53.572 53.572 53.575 53.576 53.574 53.573 53.567 53.566 53.564 53.564 53.568 53.572 53.567 53.569 53.587 53.588 53.585 53.584 53.584 53.587 53.595 53.602 53.605 53.600 53.604 53.599 53.590 53.592 53.595 53.596 53.596 53.598 53.607 53.614 53.623 53.625 53.617 53.605 53.616 53.603 53.605 53.631 53.664 53.706 53.709 53.707 53.718 53.729 53.769 53.780 53.802 53.804 53.756 53.715 53.695 53.670 53.699 53.713 53.735 53.756 53.749 53.737 53.730 53.736 53.744 53.734 53.736 53.746 53.744 53.747 53.756 53.759 53.755 53.755 53.750 53.751 53.754 53.769 53.774 53.762 53.766 53.769 53.775 53.784 53.792 53.787 53.782 53.794 53.789 53.791 53.831 53.867 53.881 53.919 53.945 53.954 53.961 54.011 53.989 54.059 54.077 54.113 54.129 54.157 54.189 54.220 54.259 54.287 54.324 54.354 54.367 54.368 54.380 54.390 54.392 54.403 54.443 54.467 54.505 54.519 54.512 54.528 54.598 54.600 54.585 54.564 54.534 54.477 54.453 54.421 54.398 54.391 54.372 54.365 54.362 54.358 54.356 54.355 54.353 54.352 54.360 54.365 54.371 54.377 54.382 54.385 54.374 54.370 54.370 54.369 54.364 54.366 54.364 54.361 54.363 54.353 54.337 54.312 54.292 54.278 54.265 54.281 54.327 54.348 54.355 54.359 54.363 54.367 54.375 54.388 54.398 54.403 54.409 54.420 54.429 54.428 54.429 54.432 54.427 54.433 54.449 54.448 54.447 54.444 54.442 54.435 54.439 54.452 54.453 54.454 54.458 54.465 54.472 54.480 54.491 54.485 54.482 54.500 54.526 54.534 54.539 54.573 54.610 54.640 54.708 54.712 54.717 54.700 54.646 54.656 54.681 54.740 54.820 54.874 54.924 54.963 55.016 55.021 55.048 55.056 55.076 55.094 55.120 55.122 55.143 55.153 55.162 55.125 55.120 55.093 55.084 55.065 55.041 54.998 54.977 54.946 54.892 54.820 54.789 54.743 54.739 54.715 54.751 54.733 54.673 54.601 54.564 54.547 54.555 54.593 54.591 54.562 54.540 54.790 54.811 54.803 54.785 54.782 54.788 54.866 54.863 54.860 54.856 54.853 54.850 54.846 54.843 54.840
53.498 53.510 53.522 53.534 53.546 53.558 53.570 53.582 53.594 53.586 53.588 53.585 53.579 53.589 53.581 53.570 53.570 53.571 53.571 53.572 53.575 53.575 53.578 53.567 53.563 53.561 53.558 53.560 53.558 53.560 53.560 53.567 53.563 53.571 53.579 53.586 53.593 53.600 53.609 53.615 53.624 53.631 53.636 53.637 53.636 53.635 53.634 53.625 53.617 53.606 53.602 53.603 53.602 53.598 53.595 53.599 53.580 53.578 53.570 53.566 53.565 53.564 53.565 53.565 53.562 53.561 53.564 53.565 53.574 53.579 53.576 53.573 53.569 53.569 53.556 53.546 53.540 53.538 53.542 53.529 53.521 53.530 53.535 53.542 53.545 53.545 53.544 53.543 53.544 53.548 53.548 53.553 53.558 53.558 53.561 53.563 53.571 53.572 53.571 53.572 53.575 53.575 53.572 53.570 53.570 53.567 53.564 53.565 53.568 53.571 53.564 53.570 53.583 53.586 53.583 53.584 53.583 53.586 53.595 53.597 53.603 53.601 53.604 53.598 53.598 53.600 53.592 53.591 53.602 53.611 53.612 53.620 53.613 53.614 53.599 53.614 53.622 53.615 53.617 53.642 53.694 53.722 53.741 53.705 53.721 53.741 53.768 53.770 53.763 53.773 53.758 53.737 53.720 53.664 53.684 53.700 53.748 53.784 53.771 53.745 53.725 53.730 53.732 53.730 53.741 53.739 53.738 53.740 53.764 53.767 53.748 53.751 53.749 53.749 53.747 53.754 53.761 53.757 53.766 53.765 53.773 53.773 53.774 53.783 53.796 53.810 53.807 53.809 53.846 53.862 53.875 53.899 53.915 53.932 53.966 54.029 54.056 54.063 54.090 54.106 54.126 54.161 54.186 54.217 54.248 54.277 54.321 54.342 54.354 54.356 54.372 54.376 54.377 54.386 54.437 54.442 54.467 54.480 54.494 54.515 54.612 54.621 54.584 54.573 54.519 54.498 54.457 54.411 54.383 54.371 54.361 54.358 54.354 54.351 54.349 54.348 54.347 54.351 54.356 54.359 54.364 54.369 54.375 54.372 54.367 54.365 54.365 54.363 54.359 54.360 54.357 54.359 54.359 54.342 54.321 54.303 54.275 54.256 54.256 54.302 54.324 54.339 54.346 54.353 54.358 54.364 54.371 54.383 54.389 54.394 54.403 54.414 54.419 54.421 54.424 54.426 54.422 54.429 54.442 54.443 54.443 54.437 54.427 54.424 54.435 54.454 54.442 54.440 54.443 54.446 54.452 54.469 54.478 54.470 54.467 54.474 54.490 54.515 54.527 54.550 54.602 54.631 54.700 54.698 54.716 54.690 54.582 54.605 54.659 54.711 54.800 54.863 54.893 54.918 54.959 54.965 54.989 54.999 55.010 55.038 55.057 55.079 55.075 55.097 55.126 55.083 55.076 55.061 55.046 55.028 55.000 54.975 54.948 54.902 54.862 54.819 54.771 54.738 54.718 54.693 54.701 54.705 54.631 54.565 54.597 54.730 54.646 54.608 54.596 54.589 54.508 54.493 54.673 54.726 54.733 54.752 54.747 54.862 54.859 54.856 54.852 54.849 54.846 54.842 54.839 54.836
53.502 53.514 53.525 53.537 53.548 53.559 53.571 53.582 53.594 53.583 53.584 53.582 53.580 53.580 53.573 53.570 53.571 53.575 53.572 53.577 53.573 53.570 53.573 53.569 53.570 53.578 53.586 53.570 53.572 53.559 53.557 53.561 53.564 53.571 53.576 53.581 53.588 53.594 53.604 53.613 53.622 53.629 53.635 53.637 53.639 53.639 53.632 53.626 53.613 53.602 53.603 53.603 53.601 53.592 53.587 53.592 53.587 53.574 53.568 53.567 53.564 53.562 53.569 53.571 53.571 53.561 53.563 53.567 53.568 53.577 53.577 53.573 53.573 53.576 53.557 53.547 53.537 53.540 53.538 53.529 53.524 53.533 53.543 53.544 53.550 53.546 53.543 53.542 53.546 53.548 53.551 53.554 53.556 53.560 53.561 53.565 53.572 53.571 53.572 53.573 53.573 53.574 53.573 53.570 53.569 53.569 53.565 53.564 53.567 53.569 53.562 53.573 53.586 53.585 53.582 53.582 53.582 53.584 53.593 53.595 53.598 53.601 53.597 53.602 53.606 53.614 53.587 53.585 53.605 53.612 53.613 53.613 53.608 53.617 53.596 53.612 53.619 53.636 53.638 53.664 53.680 53.672 53.668 53.667 53.687 53.700 53.744 53.758 53.765 53.774 53.771 53.764 53.762 53.723 53.680 53.699 53.757 53.759 53.739 53.737 53.714 53.722 53.724 53.730 53.736 53.735 53.733 53.736 53.745 53.749 53.741 53.743 53.749 53.750 53.748 53.747 53.759 53.759 53.762 53.768 53.772 53.770 53.774 53.790 53.797 53.804 53.816 53.823 53.848 53.846 53.873 53.890 53.893 53.910 53.943 54.006 54.016 54.043 54.085 54.112 54.137 54.161 54.187 54.219 54.249 54.276 54.299 54.319 54.340 54.346 54.355 54.356 54.361 54.366 54.411 54.408 54.432 54.451 54.470 54.486 54.513 54.542 54.549 54.548 54.501 54.478 54.415 54.388 54.374 54.357 54.352 54.350 54.347 54.342 54.343 54.343 54.344 54.348 54.350 54.354 54.361 54.365 54.372 54.364 54.361 54.361 54.361 54.356 54.354 54.354 54.349 54.355 54.352 54.333 54.315 54.295 54.265 54.248 54.266 54.317 54.334 54.334 54.338 54.347 54.352 54.357 54.365 54.377 54.381 54.386 54.399 54.408 54.412 54.417 54.418 54.419 54.418 54.425 54.431 54.433 54.439 54.434 54.420 54.418 54.421 54.430 54.430 54.441 54.451 54.446 54.445 54.458 54.468 54.457 54.443 54.452 54.466 54.492 54.493 54.517 54.564 54.601 54.669 54.694 54.707 54.584 54.529 54.560 54.616 54.669 54.740 54.833 54.823 54.850 54.904 54.922 54.938 54.959 54.976 55.004 55.038 55.036 55.031 55.037 55.049 55.045 55.038 55.027 55.009 54.992 54.973 54.952 54.920 54.888 54.859 54.813 54.768 54.730 54.706 54.699 54.649 54.628 54.601 54.552 54.537 54.679 54.792 54.661 54.649 54.612 54.512 54.536 54.605 54.683 54.700 54.749 54.735 54.859 54.855 54.852 54.849 54.845 54.842 54.838 54.835 54.832
