49.870999999978380401 49.876999999970124122 49.8980000000046644 49.957000000065910683 49.973000000055883163 49.97300000008567622 49.960000000049255675 49.949000000031780644 49.944999999980488781 49.940999999958094691 49.937999999948779362 49.964999999846341439 49.967999999990340143 49.98600000009832911 50.020000000092451842 50.041000000032127559 50.033000000039379529 50.022999999992649123 49.999999999943192108 49.979999999976435276 49.977999999981634005 49.982999999950493475 49.987999999999040313 49.99899999998760336 50.005999999990429217 50.00999999998136758 50.013999999967211352 50.02299999991512891 50.043999999944389856 50.057999999948776804 50.059999999942753846 50.061999999990682397 50.06200000001432926 50.062000000009312828 50.057999999990684614 50.060999999976722563 50.078999999902215734 50.092999999922049881 50.093999999953439328 50.109999999925499026 50.140999999905304207 50.172999999953439954 50.219999999919757272 50.280999999977659343 50.300999999981371502 50.32799999993481066 50.34199999996184971 50.357999999920835421 50.37099999988824095 50.357999999948773961 50.357999999921453593 50.345999999981373207 50.341999999993035431 50.342999999995356575 50.372999999855643694 50.387999999908508642 50.39399999981426248 50.3949999998139333 50.426999999781138229 50.44499999970181392 50.47199999981839369 50.509999999815214267 50.548999999910883218 50.596999999855647445 50.691999999861295123 50.728999999841676072 50.772999999795111137 50.798999999859347554 50.808999999811440773 50.818999999853424754 50.892999999795335953 50.906999999933418621 50.927999999883589055 50.958999999810217219 50.99499999961290797 51.017999999812730039 51.057999999721452866 51.10099999968308282 51.13399999981326971 51.166999999776720642 51.195999999698571514 51.22599999960993955 51.254999999805519906 51.291999999845238278 51.364999999818394372 51.389999999828361865 51.407999999902216359 51.41999999993765158 51.424999999916174431 51.424999999825594443 51.505999999459952221 51.60499999959225903 51.634000000002508557 51.726000000061830519 51.74200000007949285 51.800999999810024121 51.807999999902214938 51.818999999915845933 51.823999999778315839 51.82699999975780969 51.827999999423909117 51.826999999869649116 51.810999999944122862 51.810999999672574745 51.822999999729923104 51.826999999914320938 51.824999999976718357 51.821999999985713714 51.821999999882073951 51.769000000137040729 51.865999999746009053 51.889999999835055178 51.961999999482266333 51.983999999753201848 51.983999999621559596 51.983999999846332685 51.993999999707121162 51.98499999986961484 51.98499999992549192 51.984999999995352482 52.020999999823047233 52.02099999982774392 52.025999999715757838 52.060999999686146111 52.102999999797802388 52.118999999922039024 52.152999999804357856 52.196999999616409127 52.199999999617382684 52.217999999888029095 52.257999999741961972 52.296999999818389426 52.350999999750193581 52.410999999595873078 52.431999999590622963 52.471999999806193671
49.868000000000002103 49.872000000000632269 49.899000000000000909 49.966999999999998749 49.984999999999999432 49.984999999999999432 49.971000000018207743 49.953000000000002956 49.940999999992300218 49.931999999999248985 49.92699999998799143 49.931999999999867157 49.966999999998591875 50.006999999999997897 50.040999999994589587 50.048000000000001819 50.040999999999996817 50.021999999991827224 49.990999999999999659 49.975000000000001421 49.973999999995584176 49.975999999999999091 49.987999999999999545 49.996000000000002217 50.003999999989432013 50.006000000000000227 50.006999999996054385 50.011000000000521482 50.032000000000323325 50.046999999999997044 50.052000000000731461 50.060000000000144382 50.064000000000000057 50.06400000000046191 50.055999999996053873 50.055999999990795857 50.057999999988162187 50.076999999994853852 50.084000000000315822 50.094000000000001194 50.127000000000002444 50.162999999970779186 50.207000000012591556 50.277999999998442604 50.296999999983952989 50.314000000000000057 50.332999999989020523 50.34100000000000108 50.346999999999233921 50.347000000000001307 50.346999999989797914 50.341999999999998749 50.340999999996306258 50.341999999994733628 50.341999999962503409 50.368000000000002103 50.368000000000002103 50.368000000000002103 50.379999999932955745 50.381000000000000227 50.432999999927147883 50.472000000000001307 50.527999999986967339 50.566000000003818116 50.660999999985911302 50.695000000005677521 50.728999999947411936 50.767999999960707669 50.768000000000007788 50.798999999999999488 50.863999999999997215 50.892999999961453739 50.902999999999991587 50.917999999999999261 50.940000000003209379 50.97699999999999676 50.999999999930189176 51.031999999916465072 51.094999999999998863 51.118000000000002103 51.131999999999997897 51.140999999999998238 51.213999999999998636 51.255000000000002558 51.325999999987679701 51.36500000000000199 51.386999999941998851 51.406999999999996476 51.406999999998248541 51.387999999999998124 51.387999999999998124 51.553999999733186144 51.633999999924974134 51.739999999900895489 51.752999999980438872 51.774999999980963139 51.793999999954209557 51.80099999992771842 51.775999999947607932 51.774999999999998579 51.747999999999748866 51.798999999988943443 51.798999999999999488 51.7649999999237167 51.764999999923901441 51.814999999993361257 51.820000000000000284 51.819999999995914663 51.795000000000001705 51.795000000034193022 51.811999999924687188 51.865999999999999659 51.890000000000000568 51.930999999999997385 51.930999999999997385 51.951000000000448154 51.952999999963296318 51.956999999978670246 51.969000000001258854 51.983000000003229957 51.982999999999996987 51.984000000000392561 51.985999999969088492 52.018000000000000682 52.058999999963617711 52.10300000000209053 52.109000000005885056 52.143999999999479655 52.146000000000000796 52.196999999970380202 52.204999999999998295 52.257999999988669515 52.297000000006399034 52.323999999952938822 52.345999999999996533 52.428999999900568696
49.863000000013073532 49.872000000043556156 49.913000000051553684 49.956999999970072679 49.987999999999999545 49.985000000000034959 49.970999999996358554 49.950000000000002842 49.935999999983863518 49.919999999957575199 49.920000000000506191 49.922999999999831289 49.954999999959781576 50.006999999999997897 50.04799999992154369 50.048000000000001819 50.030999999886205387 49.994999999963482651 49.975000000000022737 49.973000000000006082 49.973999999997019472 49.975999999999999091 49.9799999999988529 49.987999999999999545 49.9959999999639777 50.003999999958566036 50.003999999980095481 50.006000000000000227 50.017999999999574356 50.031999999979873905 50.045000000000207763 50.048000000001373166 50.053999999969292389 50.054000000000002046 50.05299999997038185 50.048999999965886332 50.048999999999999488 50.054000000000002046 50.063000000001814271 50.084000000000003183 50.120000000004765184 50.159000000036222389 50.22200000000910336 50.255000000001459171 50.277999999999998693 50.296999999999997044 50.313999999935667518 50.328000000000002956 50.337999999910714166 50.34100000000000108 50.338999999999998636 50.338999999999998636 50.337000000000003297 50.337000000000003297 50.3369999999887483 50.338000000000000966 50.33799999999914121 50.334999999825122075 50.328999999930637443 50.362999999999999545 50.37999999985040489 50.426999999861031654 50.471999999997827047 50.527999999872115211 50.59299999978038187 50.660999999869346766 50.692000000006800065 50.722000000000001307 50.740999999999999659 50.753999999999997783 50.810999999999999943 50.863999999821473352 50.873999999885285206 50.886999999931710192 50.912999999999996703 50.929000000000002046 50.959999999861295805 50.996999999999999886 51.03800000000393311 51.06799999999999784 51.087999999998267242 51.10300000000232501 51.140999999783822716 51.204999999999998295 51.256999999999997897 51.325999999770253623 51.345999999993537699 51.368999999786304045 51.375 51.374999999979529264 51.372999999999997556 51.343999999994316852 51.571999999985592922 51.662999999999996703 51.74000000000000199 51.741999999887923423 51.74000000000000199 51.756999999850236804 51.74000000000000199 51.735000000000567866 51.731999999900459386 51.743999999874283446 51.759000000000000341 51.75 51.749999999778275139 51.75000000000158451 51.774999999999998579 51.787999999999996703 51.787999999976115362 51.795000000000001705 51.805999999999997385 51.812000000001134481 51.822000000000002728 51.822000000000521425 51.86500000000000199 51.918999999619039443 51.921999999880604548 51.921999999880021903 51.902999999999998693 51.902999999999998693 51.951999999888435866 51.960000000002239062 51.969000000007952167 51.984000000000001762 52.001999999805363473 52.005999999875498929 52.04099999984609326 52.040999999731717196 52.067999999738752592 52.1499999999824837 52.193999999997579664 52.219999999871006935 52.267000000000003013 52.291999999994075665 52.295999999999999375 52.345999999994411667
49.868999999999999773 49.880999999992852167 49.914000000008527991 49.97800000000117393 49.981000000000335604 49.976999999998980684 49.968999999998239048 49.937000000002853994 49.917999999999118188 49.907999999999574925 49.908000000000271257 49.909999999999996589 49.926000000000001933 49.968000000000003524 50.024999999999273825 50.02500000000308944 49.999000000001544208 49.982999999988514617 49.969999999999998863 49.969999999999338058 49.973000000000091347 49.973999999999847432 49.97399999999964848 49.975999999999999091 49.985999999999449983 49.991999999998974147 49.997999999999997556 50.006000000000739192 50.012000000000874422 50.021999999999998465 50.024999999999820943 50.03699999999935244 50.045000000000001705 50.047999999999184695 50.044000000001204853 50.039000000000001478 50.035000000000941611 50.034999999999996589 50.037999999999883016 50.059999999995383746 50.082999999989141315 50.137000000007738265 50.182000000007207063 50.229999999999996874 50.255000000000002558 50.265000000000000568 50.287999999999279055 50.301000000000001933 50.311999999999066802 50.311999999999997613 50.313000000000002387 50.323000000000000398 50.322999999999382226 50.299000000002692445 50.292999999999999261 50.300000000001290346 50.31799999999999784 50.31799999999999784 50.302000000000681723 50.327000000002662716 50.350000000010815882 50.372000000001904141 50.401000000002078139 50.440999999995220548 50.542000000007050176 50.60699999998074361 50.652000000000001023 50.683999999998498254 50.701999999990121637 50.737999999999999545 50.755000000005225047 50.810999999996475651 50.841999999999998749 50.867000000002271065 50.876999999994879431 50.896999999997767361 50.92200000000141813 50.952999999997146574 50.984000000006332698 51.027999999999998693 51.054999999999559179 51.056999999994410189 51.079000000000000625 51.137999999999998124 51.204999999994363691 51.256999999999997897 51.282999999998153839 51.31099999999969441 51.368999999999999773 51.326999999999998181 51.306000000000032912 51.288000000000415923 51.344000000001294381 51.582000000001741569 51.663000000008715062 51.718000000000003524 51.717999999995505789 51.720999999999719421 51.735000000003026344 51.713999999999998636 51.703000000000209013 51.706999999999084139 51.707000000000000739 51.69900000000038176 51.695999999999997954 51.698999999999998067 51.709000000000003183 51.730999999998530825 51.72699999999999676 51.720999999999996533 51.720999999999996533 51.739999999993180779 51.764000000000002899 51.787000000001548017 51.800999999997436873 51.806999999997572104 51.880000000000002558 51.88000000000029388 51.857999999998831697 51.848000000004823562 51.847999999999998977 51.91999999999600135 51.932999999997811358 51.960999999999998522 51.960999999999998522 51.968000000000003524 51.998000000002519982 52.025999999991874745 52.041000000013454496 52.067999999997383043 52.149999999999998579 52.212000000011059342 52.245999999999263252 52.267000000000159332 52.292999999999999261 52.323999999999777799
49.881000000002906347 49.913000000002213596 49.928999999996243275 49.95799999999911023 49.977000000001339686 49.969000000000477257 49.937000000000679734 49.916000000000003922 49.904000000000003467 49.899000000000178545 49.894999999999036788 49.895000000000003126 49.9099999999947741 49.935000000000002274 49.996999999999665931 49.999000000001529997 49.987000000009473411 49.946000000004360686 49.946000000001994579 49.957000000000952866 49.961000000000176158 49.968000000001332239 49.968000000000003524 49.967000000000005855 49.966999999999998749 49.984999999999999432 49.992000000001759474 49.999000000000002331 50.012000000000000455 50.012000000000405464 50.008000000000002672 50.021999999998151054 50.033999999999146269 50.043999999999989825 50.044000000000764317 50.039000000000655177 50.034999999999996589 50.030000000000399041 50.030000000000001137 50.030000000000001137 50.060000000005111076 50.082999999999998408 50.137000000010452538 50.18200000000000216 50.19200000001047357 50.227000000002973934 50.25499999999662748 50.269000000005121365 50.276000000000003354 50.286999999997000543 50.292000000000001592 50.298999999998422084 50.293000000003871719 50.260000000001475939 50.25999999999999801 50.265000000003098535 50.276000000000003354 50.29399999999999693 50.295999999999999375 50.297000000006029552 50.322999999997726661 50.356000000004328854 50.394000000004567141 50.401000000000003354 50.441000000005203674 50.511000000000002785 50.606999999999999318 50.62900000000343681 50.684000000001525166 50.694999999992624851 50.738000000000482714 50.760999999996933241 50.805999999993893823 50.820999999999997954 50.839999999999598401 50.857000000001768569 50.875999999999997669 50.890000000004739888 50.916999999986039427 50.969000000000001194 51.011000000003278387 51.026000000004806623 51.042999999999999261 51.057000000008706309 51.130999999994180882 51.151999999999333113 51.204999999999998295 51.264000000000002899 51.304999999999999716 51.289000000011853331 51.27200000001071345 51.247999999999997556 51.258999999997087116 51.451000000000000512 51.553999999999753356 51.54400000000764237 51.544000000007400786 51.501000000003941182 51.695000000000000284 51.694999999998046292 51.683999999999123531 51.680000000001946603 51.616999999999997328 51.613000000000319289 51.604999999998817373 51.609000000000001762 51.661000000002921695 51.673000000000001819 51.710999999999998522 51.711000000000083787 51.710000000004086473 51.710000000001812737 51.72800000000083287 51.760000000000140119 51.786999999999999034 51.801000000000001933 51.801000000000001933 51.798999999999999488 51.795000000003042828 51.795000000000001705 51.80800000001945449 51.823000000000007503 51.874000000000357602 51.894999999998780993 51.905000000000001137 51.905000000000001137 51.920000000005131824 51.975999999999999091 52.024000000000000909 52.026000000000003354 52.085999999999998522 52.192000000000000171 52.225000000006183143 52.229000000009818905 52.267000000015308103 52.316000000018327398
49.913000000246796617 49.929000000129761361 49.966000000037517736 49.973999999995633914 49.957999999991891116 49.936999999841681586 49.902999999985382829 49.897999999995356291 49.896999999999998465 49.894999999967410531 49.887999999962751474 49.883999999976722961 49.894999999948780101 49.930999999955361091 49.950999999911530836 49.967999999869547878 49.945999999883852638 49.924999999986752641 49.94099999992549499 49.944999999987103934 49.948000000000000398 49.953999999981711255 49.953999999944514343 49.948999999978660469 49.959999999948777827 49.963999999999998636 49.984999999979116581 50.012000000055877535 50.012000000055877535 50.003000000023284599 50.003000000005670245 50.010000000069844361 50.034000000061858771 50.048000000777662422 50.134000000542826569 50.139000000422704773 50.139000000448866956 50.028000000563949357 50.014000000008905999 50.011999999953438589 50.011999999948784534 50.04899999979045333 50.068999999813740942 50.111999999852848475 50.160999999767170721 50.190999999831440448 50.206999999762523146 50.220999999720589813 50.226999999706627875 50.23199999980442243 50.251999999799771501 50.258999999876678544 50.258999999889041987 50.245999999911525435 50.241999999953428357 50.241999999953428357 50.244999999945633817 50.259999999923472558 50.268999999906867515 50.273999999947264428 50.299999999878927781 50.342999999807005906 50.355999999939463407 50.393999999962744596 50.400999999993693734 50.468999999878157325 50.541999999855647729 50.606999999687751313 50.626999999790299967 50.646999999852475582 50.694999999843673777 50.73799999979540587 50.760999999927690851 50.797999999829414719 50.808999999924630231 50.830999999807957579 50.830999999682148882 50.829999999688006085 50.829999999817019329 50.866999999884328076 50.905999999780647158 50.967999999660861477 51.002999999607538939 51.029999999691426638 51.055999999838540759 51.086999999904328718 51.1289999998201381 51.128999999715944114 51.137999999674029539 51.192999999417921231 51.193999999529680167 51.193999999757856756 51.202999999954450061 51.294999999646101685 51.450999999051738598 51.465999999203724258 51.465999999650925645 51.447999999730122056 51.483999999692784399 51.631999999274867719 51.633999999530679759 51.612999999637445114 51.596999999701978368 51.559999999934809978 51.56599999993946426 51.576999999920140283 51.604999999916628894 51.620999999893086851 51.629999999897556506 51.6429999998789242 51.666999999773047136 51.682999999904893684 51.693999999930746014 51.721999999780337021 51.733999999850993845 51.75499999981373378 51.754999999814842226 51.762999999799760076 51.762999999800165085 51.768999999788519517 51.775999999823682174 51.797999999840307339 51.807999999811528369 51.813999999816040543 51.827999999888064053 51.828999999883592409 51.83499999979976991 51.888999999548310882 51.96599999938532477 51.965999999599475245 51.981999999310815497 52.085999999349134271 52.16099999938533216 52.151999999771369687 52.151999999938617236 52.306999999602354023
49.966000000001507431 49.972000000000001307 49.973999999814544992 49.973999999999996646 49.954999999925689735 49.903000000000155012 49.898000000000145349 49.896999999999927411 49.896999999999998465 49.888000000001113676 49.880000000000002558 49.878999999999997783 49.884000000059316449 49.917000000075418598 49.93200000000000216 49.941000000000002501 49.922000000088907257 49.921999999999997044 49.924999999999812417 49.94299999999999784 49.948000000019739275 49.948000000000000398 49.942000000046334662 49.942000000000000171 49.948999999999990962 49.963999999999998636 49.980000000016438833 50.024000000006623168 50.024000000000000909 50.007999999979631411 50.003999999996338488 50.025000000005988454 50.048000000000001819 50.214999999994823554 50.250999999812641761 50.276000000000003354 50.241999999999997328 50.151000000000003354 50.016000000005405468 50.002000000003825164 50.000999999999997669 50.003999999999997783 50.029000000000003467 50.064999999999997726 50.110999999993509846 50.154000000005083848 50.156000000295847485 50.161000000235837604 50.164000000186923955 50.190000000110423173 50.209000000000003183 50.21800000000001063 50.2220000000010387 50.226999999999570434 50.231999999999999318 50.231999999999999318 50.233000000079364611 50.2440000000009519 50.249000000018412493 50.256999999999997897 50.274000000000000909 50.301000000054706618 50.343000000030265539 50.385999999988989373 50.399000000000000909 50.426999999999999602 50.510999999999192767 50.540000000011197301 50.581000000005644779 50.616000000179802498 50.659999999999996589 50.695000000000000284 50.744999999999997442 50.76100000010166724 50.782999999997741725 50.767999999996966665 50.763000000267297196 50.762999999999998124 50.792000000130201443 50.826000000000000512 50.86199999999974608 50.895000000000003126 50.919000000334648348 50.964000000262217327 51.005000000000002558 51.055000000117075842 51.070000000000000284 51.067999999999834415 51.06799999999999784 51.068000000212300904 51.092999999995548421 51.142000000010469307 51.186999999996672273 51.219000000208723122 51.248000000118850039 51.295000000000001705 51.390000000237904487 51.390000000000000568 51.390000000230976696 51.394000000166528253 51.48700000000140875 51.494000000405961259 51.533000000000001251 51.545999999999999375 51.552999999999997272 51.560000000001245724 51.576999999999998181 51.598000000084560668 51.607999999999996987 51.616999999999997328 51.618999999999999773 51.651000000000003354 51.671999999999997044 51.675000000184617477 51.702000000002108493 51.7149999999993355 51.715000000134004665 51.719999999998925944 51.719999999999998863 51.723999999999996646 51.737999999999686906 51.746000000000002217 51.746000000000002217 51.774000000000000909 51.804000000000002046 51.804000000099527767 51.792000000000001592 51.792000000000001592 51.834000000000813202 51.833999999994418317 51.834000000149949017 51.946000000528442797 52.029000000294971073 52.076999999999998181 52.120999999997273733 52.176999999999999602
50.036999999999999034 50.055999999999997385 50.020999999900872979 49.996999999999999886 49.976000000018437674 49.904000000000813486 49.898000000000038767 49.89699999996350499 49.896999999999998465 49.887999999991528455 49.878999999999997783 49.877999999999957481 49.878999999999997783 49.908000000000001251 49.925000000003478817 49.928000000009141957 49.921999999999997044 49.924999999999499778 49.950000000000002842 49.948000000015568389 49.94299999999999784 49.942000000000000171 49.935000000019520883 49.938000000000002387 49.948000000000000398 49.958000000018010667 49.969000000002921524 50.003999999993162362 50.013000000031176739 50.018000000000228056 50.0179999999577376 50.047999999971310103 50.185000000000002274 50.276000000000003354 50.298999999999999488 50.29900000000044713 50.286999999999999034 50.269000000002151296 50.233000000008203756 50.000999999412215402 49.995000000010378471 49.993000000000002103 49.994000000123236305 50.026000000105248944 50.063000000000030809 50.07900000022537057 50.096000000003492403 50.103000000000001535 50.115000000121995072 50.163000000004586809 50.186999999992572441 50.20600000000000307 50.206000000105674985 50.203999999999673776 50.198000000106873131 50.198000000087560579 50.212999999996526412 50.231999999999246143 50.244000000000120565 50.246000000048979928 50.257000000054567579 50.28200000007580428 50.318000000080274958 50.350000000116118315 50.387999999997063583 50.411999999999999034 50.484999999999999432 50.510999999997324039 50.540000000000823377 50.56899999999809836 50.64400000021877446 50.663000000049706273 50.72600000005867571 50.738999999998661394 50.742999999996207805 50.743000000000002103 50.743000000000002103 50.744999999999997442 50.759000000000000341 50.792000000001436888 50.82299999999421658 50.853999999999999204 50.877000000127999613 50.912000000163025959 50.941000000000002501 50.975999999998784062 50.982000000157839281 51.015000000160021898 51.01500000016287828 51.014000000000002899 51.030000000186987563 51.081000000180040388 51.142000000020402695 51.167000000000001592 51.218000000009205053 51.230000000193641085 51.247999999999997556 51.319000000268793826 51.332000000189374589 51.353000000255605073 51.388000000216678131 51.390999999999998238 51.489999999978820711 51.539999999999999147 51.548999999999999488 51.549000000135862365 51.564000000061760431 51.577000000063172536 51.594000000000001194 51.606999999999999318 51.606999999999999318 51.616000000000099135 51.616000000168952511 51.63700000000491741 51.664000000119720823 51.681000000138872963 51.680999999999997385 51.635000000070029103 51.707999999999998408 51.709000000000003183 51.71600000000000108 51.709000000140420639 51.699999999993657696 51.717000000173648289 51.725000000238509301 51.739000000193144047 51.742000000053451458 51.762999999997553857 51.771999999999998465 51.796000000006102937 51.813000000000002387 51.921999999999997044 52.006000000178886467 52.029000000000003467 52.066000000076080312 52.121000000000002217
50.08000000005537089 50.079999999999998295 50.055999999995677285 50.021000000000000796 49.997000000068503311 49.952000000012176884 49.909999999999996589 49.909000000013932663 49.899999999999756994 49.887999999999998124 49.878999999998939074 49.877999999998827718 49.878000000000000114 49.893999999999998352 49.922000000000679165 49.925000000000132161 49.92800000000038807 49.950000000029099567 49.960000000011262955 49.957000000000000739 49.942000000000000171 49.929000000000002046 49.928999999992974779 49.937000000000857369 49.949000000001248623 49.951999999990327694 49.958000000001419494 49.984999999999999432 50.003999999992934988 50.018000000000000682 50.047999999994921438 50.061999999999997613 50.209999999999681108 50.250999999999997669 50.287999999998511669 50.298999999997811017 50.287000000000830369 50.275999999998468581 50.240999999994230052 50.196000000084652015 49.995000000225019221 49.990999999999999659 49.990999999999999659 49.988000000005278878 49.999000000000002331 50.024999999937762141 50.039999999999025704 50.060999999960124285 50.078999999933692777 50.109000000000001762 50.139999999943974274 50.170999999995778751 50.170999999999999375 50.168999999959325464 50.168999999966018777 50.173000000000158138 50.18299999998239258 50.213000000003503942 50.228000000000001535 50.228999999981915892 50.238000000001072465 50.256999999999997897 50.284999999958607475 50.320999999975022376 50.360999999968498742 50.393999999957834746 50.442000000000000171 50.48700000000139454 50.505999999998437033 50.515000000000000568 50.569000000010149165 50.646000000000000796 50.665999999942719967 50.725999999999999091 50.731000000000001648 50.732999999997652196 50.732999999999996987 50.731000000000001648 50.731000000000847194 50.76100000000074175 50.793999999991868322 50.819000000000002615 50.837999999958000785 50.865999999999999659 50.902000000000001023 50.932999999950723691 50.955999999951423263 50.976999999999634383 50.982000000001256979 50.971999999997983366 50.971999999932023684 51.029999999994437587 51.135999999892334245 51.145999999886903709 51.167000000000001592 51.176999999999566171 51.182999999994194695 51.230000000009411565 51.270999999932953983 51.270999999942560521 51.315999999999966974 51.387999999979655286 51.421000000001725994 51.489999999958399712 51.503999999999997783 51.511999999954660723 51.540999999986766511 51.563999999982044642 51.564000000000000057 51.543999999926164435 51.545000000000001705 51.584000000005438835 51.583999999957640625 51.601999999960852961 51.624000000000002331 51.635000000001923581 51.622999999986539876 51.612000000000001876 51.612000000000001876 51.655000000000001137 51.709000000000003183 51.675999999975381627 51.656999999999996476 51.654999999898116414 51.684000000001525166 51.722999999954289763 51.72300000000022635 51.738999999999997215 51.761999999995488508 51.761999999962490904 51.813000000000002387 51.902000000000001023 51.945999999999997954 52.013000000000907619 52.0419999999958236 52.100999999995821099
50.079000000000000625 50.076000000000910006 50.057999999999999829 50.036000000000001364 50.01099999999451029 49.980999999995646021 49.951999999999998181 49.927999999999997272 49.909999999999278941 49.899000000000000909 49.881999999996651241 49.876000000001511125 49.872999999999997556 49.875 49.910999999994622556 49.924999999996444444 49.940999999998986425 49.944999999999993179 49.951000000000000512 49.942000000000845716 49.924000000000305022 49.920000000000001705 49.920999999999999375 49.936999999999997613 49.948000000000007503 49.952000000000545299 49.959000000000422403 49.985000000002287379 50.012999999999998124 50.01800000000020674 50.058000000000333785 50.098999999993594656 50.18499999999595218 50.231999999996908457 50.257999999995611518 50.286999999999999034 50.286999999999999034 50.287000000001540911 50.273999999997059263 50.233000000002988372 50.191000000000002501 49.989999999942597242 49.985999999999997101 49.98599999999889576 49.998000000002683407 50.003000000003325454 50.02200000000465252 50.039000000000001478 50.046999999997666464 50.058000000007673691 50.078000000007733661 50.092000000000439286 50.11900000000045452 50.124000000005104027 50.129999999999817817 50.139999999997577618 50.161999999996993438 50.18299999999818084 50.210999999999998522 50.213000000001400736 50.21600000000000108 50.235000000005236132 50.25999999999999801 50.287000000010216638 50.321000000014052489 50.368000000010205497 50.399000000000000909 50.447000000004116771 50.474000000003833577 50.506000000000000227 50.545000000005238405 50.600999999999999091 50.643999999999998352 50.677999999999997272 50.710999999999998522 50.731000000000257444 50.732999999999520924 50.732999999999996987 50.736999999999440547 50.753000000000000114 50.785999999995091514 50.797999999998879161 50.80700000000000216 50.816000000003747061 50.848999999999996646 50.883000000014725117 50.886000000000002785 50.895000000010732322 50.923999999999999488 50.941000000003661796 50.953000000003825676 50.971999999991510322 51.040999999999996817 51.128999999999997783 51.146000000002857178 51.148000000003428056 51.14800000000000324 51.182999999992262019 51.222000000000001307 51.23600000000013921 51.237000000000001876 51.298999999993121435 51.354999999998327098 51.415999999990347646 51.466999999993348069 51.477999999997742009 51.499000000000002331 51.531999999999996476 51.531999999998696183 51.469000000009067719 51.469000000003489959 51.484999999999999432 51.545000000001508056 51.555999999999997385 51.58100000000000307 51.610999999999997101 51.610999999999059185 51.604999999999655813 51.595999999999776264 51.602000000000060709 51.655000000000001137 51.655000000007937899 51.591000000001436376 51.569000000000002615 51.62900000000070122 51.684000000001852015 51.698999999999998067 51.712000000000003297 51.72999999999919396 51.745999999996101337 51.769000000006606399 51.82800000001503804 51.869999999999997442 51.954000000000000625 52.013000000012262092 52.04100000001035653
50.075999999975735477 50.065999999962748745 50.046999999932658909 50.031999999998362227 50.020000000019713582 50.010000000007927667 49.968000000086043144 49.952000000013967451 49.926000000000009038 49.903999999999122394 49.881999999975931814 49.871999999995203723 49.870999999990203833 49.873000000018180344 49.910999999972062824 49.923999999938253325 49.928999999988953107 49.929999999967400015 49.928999999972063506 49.923999999986484966 49.913999999981378153 49.911999999976721654 49.917999999953075019 49.93200000000000216 49.950000000025724489 49.956000000097795066 49.965000000237495215 50.014000000398922907 50.030000000447031994 50.058000000316646094 50.099000000125727183 50.106000000027940189 50.106000000000001648 50.202999999819944321 50.202999999660072206 50.202999999670716136 50.264999999544450304 50.296999998714774449 50.273999998815718016 50.23799999995112131 50.190999999645555363 49.98799999998137622 49.980000000000323723 49.979999999999947136 49.983999999990729179 49.9979999999328939 50.006999999979477423 50.021999999874275034 50.021999999874061871 50.022999999892455492 50.02399999972525535 50.036999999911088821 50.07699999992017581 50.07699999980013672 50.078999999837023438 50.1049999997811355 50.138999999845943023 50.161999999956798035 50.187999999956637964 50.195999999864959307 50.195999999892897847 50.196999999925495217 50.234999999823045869 50.267999999953062229 50.295999999897617272 50.334999999922082736 50.392999999936691324 50.432999999951896086 50.459999999957695138 50.486999999918168669 50.545000000009864038 50.600999999971413956 50.619999999979434335 50.657999999908170707 50.682999999978122219 50.727999999930155184 50.737000000000001876 50.737000000000001876 50.737999999995338385 50.744999999991534878 50.77599999996186142 50.785999999980781183 50.797999999939605686 50.801999999940754549 50.807999999958092019 50.815999999948779475 50.815999999948779475 50.81599999995334116 50.885999999674979222 50.91499999982962521 50.923999999874276057 50.94599999979510585 50.94599999979510585 50.975999999890163394 51.121999999635576728 51.128999999369732166 51.121999999708620521 51.147999999621880818 51.188999999892487835 51.209999999959897821 51.221999999943911064 51.221999999970989847 51.274999999753198665 51.311999999911520831 51.363999999801627894 51.414999999904360095 51.474999999698027864 51.477999999904298534 51.464999999935010067 51.461999999903433434 51.464999999893642268 51.467999999940559519 51.473999999818389028 51.484999999771822843 51.558999999548305482 51.561999999642509351 51.578999999906862683 51.578999999968445422 51.578999999959791012 51.587999999841677834 51.59599999976320106 51.590999999880594373 51.548999999941607086 51.552999999959283173 51.561999999939466477 51.628999999720605274 51.665999999909033136 51.665999999813735144 51.665999999846327739 51.700999999818399999 51.768999999683352087 51.782999999934808955 51.82799999997671847 51.867999999860302296 51.950999999604967172 51.971999999829300521
50.071000000011288478 50.057999999989803541 50.032999999957198156 50.030999999999998806 50.031000000001490946 50.020000000005225615 49.986999999994353061 49.954999999951724021 49.925999999941318208 49.904000000000003467 49.876999999990694334 49.871000000000002217 49.868999999994841232 49.880999999999879435 49.905000000001635385 49.910999999996803922 49.922999999999731813 49.922999999985357533 49.923000000000442355 49.916999999996669146 49.909999999999996589 49.907000000000728335 49.907999999999994145 49.932000000004755691 49.956000000048994991 49.97699999999999676 50.016000000003977277 50.102000000213422481 50.125999999994391487 50.126000000165824133 50.125999999991186939 50.112000000000506361 50.106000000000001648 50.105999999996150507 50.130000000000002558 50.130000000000002558 50.021000000000000796 50.020999999325319152 50.02099999938306496 50.237999999446714128 50.011000000002027832 49.983999999999419117 49.979999999999996874 49.979999999999996874 49.981000000000001648 49.984000000000172292 49.994999999929930823 49.994999999934158552 49.994999999999997442 49.964999999999839986 49.965000000000003411 49.99000000000000199 50.033999999917085688 50.033999999936959568 50.043999999922455402 50.058000000000049567 50.105000000005013305 50.140000000000000568 50.163000000001147782 50.16700000000071924 50.173000000000001819 50.180999999999997385 50.196999999995732367 50.243999999976125537 50.273999999939690042 50.295999999999999375 50.359999999843452656 50.404000000000003467 50.441999999960970058 50.468999999956444924 50.545000000000001705 50.588000000000000966 50.610000000002997922 50.63799999996741974 50.677999999999997272 50.713000000004065271 50.73699999999999477 50.736999999999845556 50.736999999997564714 50.737999999999999545 50.758000000000002672 50.776000000000003354 50.784999999969890894 50.788999999973334809 50.798999999969467467 50.805000000000006821 50.804999999973183833 50.805999999971255932 50.816000000000002501 50.880000000000002558 50.896999999934521952 50.902000000000001023 50.901999999992447954 50.916999999969561941 50.924999999999997158 50.993999999999999773 51.061999999999017064 51.066999999987309877 51.138999999920201844 51.188999999837925259 51.210999999999998522 51.215999999985129421 51.221999999998395481 51.293000000010401607 51.322999999900957846 51.363999999999997215 51.412999999849695598 51.424999999829850594 51.429999999836290669 51.441999999950610345 51.441999999920831499 51.435999999904858271 51.43499999988038951 51.435999999859859599 51.462000000002149136 51.484999999997626219 51.558999999999997499 51.561999999998597843 51.570000000000000284 51.55400000000588534 51.545000000001344631 51.53099999990977409 51.515999999910427221 51.530999999947745494 51.548999999954880025 51.569000000005722484 51.616999999999997328 51.625999999999997669 51.632999999920464518 51.661999999997433974 51.700999999990003175 51.768999999999152806 51.823000000000000398 51.838000000000000966 51.864999999999994884 51.880000000000002558
50.067999999999074134 50.04099999996787318 50.018999999999998352 50.017000000000003013 50.018999999975910953 50.017000000000003013 49.9869999999124488 49.932999999999999829 49.903999999984208102 49.890000000000000568 49.872000000000156206 49.859999999978462881 49.868999999975969217 49.88099999999987233 49.894999999977052596 49.89800000000000324 49.901999999998466251 49.917000000008712846 49.921999999999997044 49.914999999994144275 49.90799999999484271 49.908000000000001251 49.907999999999994145 49.953000000000002956 49.97699999999999676 49.990999999995999303 50.079000000000000625 50.116000000372409318 50.259000000000000341 50.270000000000003126 50.203000000005701509 50.137999999999998124 50.102999999993414804 50.066000000000002501 50.035000000000145803 50.016999999759143236 50.015000000000000568 50.014999999986820001 50.011999999997698296 50.011000000000002785 49.983999999999390695 49.979999999965123436 49.978999999999999204 49.979999999999755289 49.978999999999999204 49.977999999972375633 49.965000000000003411 49.961999999999534339 49.963000000000000966 49.954000000025580164 49.965000000000003411 49.990000000001067804 50.000000000001541878 50.00900000000014245 50.011999999997314603 50.027999999999998693 50.057999999989888806 50.106999999994755512 50.143999999957095781 50.161999999999999034 50.165999999999620229 50.169999999999809859 50.19000000000031747 50.228999999999999204 50.246999999999999886 50.273999999997748489 50.296999999904620893 50.362999999908659277 50.40699999998976466 50.448999999959305285 50.515999999999998238 50.576999999999998181 50.609999999946410298 50.625 50.643000000000000682 50.704000000000000625 50.716999999999998749 50.722999999969246687 50.727999999998708347 50.737000000000001876 50.744999999999997442 50.757999999962578386 50.771999999970496731 50.777999999963491007 50.786999999999999034 50.790999999999989711 50.792999999973510228 50.801999999990357537 50.805999999999997385 50.820999999999997954 50.85099999989932229 50.849999999999994316 50.85500000000351406 50.871999999903160017 50.882999999889115372 50.920000000000001705 50.972999999999998977 51.037999999928992167 51.066999999840497537 51.145000000000003126 51.184999999997266684 51.215999999936315135 51.223000000003843013 51.253999999999528825 51.310999999997129351 51.322999999841719898 51.3499999997465153 51.354999999735348126 51.362999999856832289 51.368000000000002103 51.367999999998488647 51.36800000001116473 51.423000000000207876 51.42499999998091198 51.434999999999966747 51.459000000000003183 51.471999999856485886 51.537999999999996703 51.537999999819604113 51.505999999823821156 51.493999999999999773 51.493999999999999773 51.494999999999855333 51.511000000000002785 51.528999999998610804 51.552999999999997272 51.590000000000003411 51.613999999999997215 51.624000000000002331 51.627000000000776936 51.665999999999989711 51.720999999994951679 51.769999999884774411 51.817000000000000171 51.837999999943555451 51.85199999999999676
50.064000000012427449 50.041000000001005787 50.011000000000002785 50.00999999999999801 50.008000000035274013 50.008000000000002672 49.948999999999998067 49.908000000000001251 49.897999999981934138 49.886000000016942124 49.858999999995660346 49.851000000019716651 49.85900000005018029 49.868999999995068606 49.885000000000893294 49.891999999999640636 49.898000000000692467 49.920000000035820165 49.922000000038813994 49.909999999999996589 49.908000000000001251 49.907999999999994145 49.931999999913941224 49.952000000007942049 49.971999999999141551 49.991000000004476078 50.101999999980421308 50.280999999969644421 50.289999999999999147 50.314999999999997726 50.290000000001917613 50.202999999601146897 50.094999999999998863 50.061999999999997613 50.035000000003975629 50.020999999985818363 50.016000000000246928 50.014999999999801616 50.011000000000002785 49.997999999999997556 49.963000000000000966 49.963999999999998636 49.974000000000920352 49.978000000010759152 49.975000000013295676 49.965000000015095338 49.962000000000003297 49.959000000000003183 49.962000000000003297 49.965000000000003411 49.993000000001039496 50 50.009000000000000341 50.008000000000201624 50.009000000000000341 50.012000000000000455 50.04100000000470061 50.080000000001263061 50.123999999998375188 50.144000000064615108 50.161999999999999034 50.170000000002055174 50.183000000024087228 50.216000000008953918 50.237999999999999545 50.254999999997586713 50.263999999986999967 50.310000000194250447 50.363999999994724988 50.40900000014747917 50.471999999990387664 50.538000000121463984 50.581000000093595759 50.626000000003855916 50.645000000000003126 50.67699999989231685 50.710000000000000853 50.716999999999231363 50.725999999997874568 50.731999999999999318 50.744999999999997442 50.749999999999815259 50.75800000003248158 50.76099999999999568 50.767000000000003013 50.775999999999719137 50.790999999999286274 50.79300000000006321 50.806000000002534023 50.806000000048882725 50.838000000000000966 50.8380000000415464 50.838000000001187573 50.840000000110869394 50.860999999999997101 50.893999999999998352 50.925000000017270452 51.003000000104080414 51.061999999999997613 51.114999999987659862 51.145000000000166551 51.185000000124965425 51.21600000000000108 51.237000000091839524 51.254000000108689505 51.253999999995535575 51.234999999999999432 51.235000000011545751 51.300000000152941482 51.304999999999999716 51.314999999999997726 51.335999999994832876 51.350999999999999091 51.417000000002865079 51.434999999996456665 51.417000000000001592 51.412999999999996703 51.43199999999476546 51.457000000000000739 51.457000000172648413 51.457000000130513229 51.442999999999820204 51.468000000138573569 51.472000000136972631 51.49600000000686606 51.511999999999439126 51.545999999999999375 51.590000000000003411 51.600000000139374379 51.609999999997867803 51.627000000061627816 51.675999999990118283 51.738999999999997215 51.788000000000259604 51.817000000075339017 51.835999999999998522
50.040999999999996817 50.033000000000001251 50.009999999967178042 50.006999999938031465 49.997999999999997556 49.96399999992549823 49.93200000000000216 49.905999999999380634 49.902999999999998693 49.886000000004386834 49.859000000005025299 49.844999999961366655 49.845000000005711627 49.868999999999999773 49.884999999998377973 49.887999999999998124 49.898000000001410115 49.90899999999999892 49.909999999999996589 49.905000000000001137 49.908000000000001251 49.915999999999996817 49.926999999999999602 49.932999999999999829 49.970999999999996533 49.990999999999999659 50.256999999999997897 50.290000000172319972 50.321999999982182317 50.385000000038154155 50.350999999999999091 50.315000000012169323 50.094999999998961471 50.06599999998584849 50.045000000000001705 50.035999999999638987 50.031999999999996476 50.025999999996599854 50.008999999958547278 49.980999999996143401 49.953999999968424106 49.961999999979376241 49.973999999999989541 49.974999999999177192 49.971000000000501018 49.958999999994738062 49.959000000000003183 49.9589999999993708 49.965000000001950298 50.005000000000002558 50.015999999999998238 50.005000000000002558 50.009000000000220609 50.009000000002757247 50.009000000000000341 50.011999999999815714 50.030999999999998806 50.070000000012271357 50.099999999996384759 50.131000000000000227 50.144000000001469175 50.161999999999999034 50.172999999973463048 50.205999999945582601 50.229999999999996874 50.245000000000523244 50.245999999940117675 50.261000000000002785 50.331000000000301497 50.375999999989033995 50.421000000008746156 50.50499999998831413 50.551999999999999602 50.626000000013263502 50.676000000000001933 50.70100000000005025 50.710000000000000853 50.718000000002788852 50.728000000004840331 50.736999999993386723 50.743999999983195437 50.744999999995471285 50.74899999998345379 50.749000000000002331 50.749000000000002331 50.750999999999784507 50.764000000000002899 50.76900000000096469 50.768999999999998352 50.771000000001620833 50.771000000000000796 50.798000000000001819 50.820999999999635577 50.82399999995249118 50.848000000003516163 50.866999999999997328 50.893999999978596804 50.937999999823603048 51.003000000000000114 51.06799999999999784 51.120000000002612239 51.151999999907438621 51.196999999927761849 51.211999999998575106 51.222999999936732252 51.223000000000233456 51.223999999996202348 51.234999999996162501 51.256000000000000227 51.267000000000003013 51.30100000000943794 51.314999999942990883 51.335999999993561005 51.350999999999999091 51.41700000001560511 51.389000000000002899 51.388999999892490678 51.401999999889625315 51.423000000000001819 51.409999999999996589 51.396999999877152732 51.374000000000663135 51.364999999999710667 51.407999999828632554 51.432999999829384308 51.475999999994826339 51.506999999993524852 51.540999999999996817 51.56100000000202499 51.597999999999373699 51.609999999999999432 51.643999999909475207 51.687999999879885138 51.720999999999996533 51.788000000004061008 51.805000000000895
50.030999999599480077 50.01099999971451382 49.997999999720605047 49.983999999790455604 49.963999999879042946 49.938999999985632883 49.91699999996988879 49.906000000000325656 49.90099999998431457 49.897999999962749484 49.865000000000009095 49.851000000018409253 49.85300000000931675 49.880000000043047237 49.88700000002793189 49.896000000041908606 49.896000000000000796 49.904999999958093326 49.8959999999348085 49.881999999892890685 49.88699999994787504 49.915999999889280048 49.926999999999935653 49.945000000179213373 49.952000000628636656 50.206000000152450014 50.322000000027948374 50.350999999911522309 50.384999999935644155 50.39900000002495517 50.399000000032593505 50.351000000188776085 50.314999999251504903 50.079000000022013239 50.0680000000151324 50.057000000023286646 50.049000000037253244 50.044000000011898521 50.026000000040312443 49.942000000315438513 49.942000000137028337 49.954000000121077107 49.976000000027852366 49.975000000017928414 49.969999999981375538 49.9559999999862967 49.955999999988748073 49.958999999998610519 49.980999999996789995 50.013999999900612181 50.015999999892898131 50.004999999946797118 49.999999999965268671 50.008999999958092531 50.008000000004656727 50.014000000009318114 50.017000000049989694 50.050999999997884515 50.086999999972064757 50.129999999944125477 50.130999999985469628 50.141999999957569401 50.15599999990686797 50.185999999851873099 50.205999999911121279 50.230999999843227499 50.230999999827716351 50.239999999859421109 50.260999999913835268 50.340999999970541978 50.406999999987021965 50.494000000119712013 50.5520000002048846 50.645000000208234781 50.691000000046571472 50.701000000000000512 50.709999999997620534 50.716999999890894912 50.728999999933400034 50.734999999979358165 50.737999999958091735 50.742999999921948984 50.742999999921508447 50.741999999902212437 50.741999999902205332 50.743999999920838206 50.743999999901298281 50.742999999906871267 50.717999999999541672 50.718000000000003524 50.74499999992082877 50.744999999945314073 50.759999999914668933 50.797999999855647957 50.823999999961252172 50.839999999948780385 50.86099999988933007 50.890999999891008088 50.935999999790453785 51.002999999798554143 51.10299999979135066 51.119999999944987223 51.166999999958306944 51.196999999860302921 51.199999999939826978 51.220999999920664436 51.222999999952612882 51.234999999935837423 51.23499999991618381 51.24599999987427168 51.282999999818393633 51.304999999878930339 51.328999999888239358 51.3349999997781552 51.315999999334103165 51.257999999952993164 51.348999999780161829 51.360999999934804805 51.396999999776475931 51.385999999822352891 51.3509999999600808 51.3439999999257779 51.341999999934813559 51.349999999911531745 51.384999999869613418 51.411999999864953281 51.448999999767167424 51.489999999625403859 51.514999999651799101 51.547999999761344725 51.583999999797640612 51.609999999887492095 51.643999999778920085 51.687999999603562173 51.708999999815532078 51.758999999721318375
49.917999999999999261 49.948999999922577331 49.938000000000180023 49.93899999999715078 49.937999999999789225 49.936999999999997613 49.90999999999120007 49.905999999999998806 49.897999999991803577 49.889999999998231317 49.86500000000051358 49.855000000013724559 49.854999999998952376 49.889000000025212955 49.893000000001066496 49.905000000027641249 49.895999999998771557 49.895999999973199124 49.882000000000900286 49.859000000006219011 49.875999999969195642 49.891999999927080012 49.926999999999999602 49.995000000012218777 50.087000000049734183 50.256999999999997897 50.328000000000002956 50.332000000000000739 50.366000000007112192 50.405999999876563322 50.405999999880890527 50.390999999999998238 50.148000000001488274 50.080999999990552851 50.072000000002248044 50.061999999999294175 50.056999999999625572 50.045999999998876717 50.036999999999999034 50.009000000000348507 49.979999999999996874 49.979999999999996874 49.984000000000001762 49.979999999984947578 49.966000000001457693 49.953000000000002956 49.953000000000002956 49.959000000000003183 49.981000000005920469 49.985999999931820525 49.993000000000620275 49.99000000000000199 49.991999999999997328 50.000000000002152944 50.009000000000000341 50.015999999998747683 50.026000000000003354 50.048999999999999488 50.080999999973293768 50.117999999917827836 50.127000000000002444 50.129999999967509439 50.135999999967516771 50.153999999949462563 50.185999999952159101 50.186999999895725466 50.194000000000450257 50.201000000000000512 50.24000000000000199 50.33100000000000307 50.407000000000074635 50.520000000085680369 50.595999999999996533 50.691000000000002501 50.701000000004981416 50.701000000000000512 50.710000000001500098 50.693000000006328776 50.71499999986897933 50.728999999999999204 50.728999999998407588 50.720999999967233407 50.720999999999996533 50.720999999999996533 50.720999999999996533 50.72699999999999676 50.722999999999316856 50.723000000001619014 50.718000000000003524 50.718000000001502769 50.728000000000001535 50.728999999999999204 50.742000000000452076 50.767000000000003013 50.812999999965420272 50.829000000000000625 50.83699999992914087 50.866999999999997328 50.891000000012937221 50.943999999929332034 51.061999999741502165 51.107999999973678484 51.156999999888007835 51.166999999862035509 51.18200000000000216 51.199999999884369117 51.210000000001400622 51.216999999999998749 51.216999999860043147 51.219000000000491468 51.24399999984400722 51.279000000006092819 51.305000000003168736 51.274999999999998579 51.173000000000001819 51.246000000011399322 51.28699999997034098 51.346999999857011687 51.349000000000572186 51.348999999889826995 51.341999999999998749 51.327999999948914933 51.327999999958493049 51.330999999997075633 51.356999999914712873 51.382999999897677412 51.399000000001969113 51.40899999999999892 51.442000000000000171 51.493999999999722661 51.524999999999998579 51.579999999999998295 51.582000000000000739 51.603999999998869441 51.654000000000003467 51.699000000003891842
49.903999999969727241 49.922000000000984699 49.927999999998014857 49.938000000000002387 49.938000000000016598 49.932000000000961393 49.906999999999996476 49.896999999990768515 49.890999999999998238 49.872999999999997556 49.854999999999996874 49.850000000000001421 49.855000000000750049 49.884999999991237019 49.911999999999999034 49.913000000004494439 49.905000000000001137 49.883999999982265194 49.859000000004805031 49.855000000000728733 49.85699999997011389 49.887000000000000455 50.041999999801646482 50.108999999999738861 50.113999999966765131 50.270000000000003126 50.328000000000002956 50.328000000001125613 50.333999999993807251 50.365999999999999659 50.334000000006867026 50.25800000001702017 50.119999999999997442 50.097000000001862929 50.072000000000002728 50.060999999982421116 50.051000000000001933 50.042999999996148119 50.040000000030786964 50.027999999986633384 49.979999999999996874 49.979999999999996874 49.979999999999996874 49.980000000001808758 49.956999999987282024 49.951999999999003421 49.950000000000514433 49.951999999999998181 49.964999999973549905 49.981000000000001648 49.987999999999999545 49.99000000000000199 49.990000000000009095 49.991999999987235981 50.006000000000000227 50.017000000000003013 50.029999999995808935 50.045000000000001705 50.060999999999999943 50.089999999982019574 50.117999999999859995 50.118999999999999773 50.119999999999997442 50.135999999969563135 50.150999999942932561 50.155000000000001137 50.157999999997180396 50.187000000001717126 50.200999999974058596 50.294999999979026484 50.481000000084286228 50.554000000011050986 50.629000000038878682 50.679000000000002046 50.701000000003347168 50.69299999999999784 50.676999999971272359 50.670999999999999375 50.670999999999132513 50.700000000000002842 50.714999999983731982 50.710000000000000853 50.693999999957711111 50.694000000000002615 50.700999999967315546 50.710000000002231957 50.710999999981005715 50.724000000002718025 50.726000000017826608 50.733000000010754604 50.732999999999996987 50.728000000000001535 50.733000000001737817 50.767000000000003013 50.797999999985918862 50.818000000006172456 50.829000000000000625 50.836999999989650689 50.869000000011574514 50.922999999979744246 50.970999999971247973 51.073000000000000398 51.109999999999999432 51.155999999915898968 51.156999999999769102 51.161999999999999034 51.161999999924468341 51.170000000000001705 51.170000000000001705 51.178999999935115284 51.194000000000002615 51.244000000003339323 51.274999999995792166 51.212000000000003297 51.209000000000003183 51.217999999985366344 51.255000000000002558 51.286999999905482639 51.299000000002052957 51.303999999928166176 51.300999999936621521 51.311999999971959596 51.314000000000170587 51.314999999999997726 51.326999999999998181 51.348999999999996646 51.366999999999997328 51.381000000000362604 51.40899999999999892 51.439999999923848861 51.465999999914401997 51.509000000000000341 51.542000000000648186 51.546999999951012228 51.585999999999998522 51.645000000006419327
49.893000000000000682 49.915000000004653202 49.923000000000982368 49.936999999996565691 49.9370000000012908 49.930999999995428595 49.90400000000320091 49.890999999999998238 49.877000000000002444 49.854999999999996874 49.842000000002947502 49.836999999966892005 49.849999999997059774 49.879999999969115265 49.91199999990201519 49.915999999963567291 49.905000000000001137 49.872000000004291564 49.850999999999999091 49.850999999999999091 49.856999999999942474 49.881999999942678414 49.917999999955675605 50.108999999340419151 50.114000000010584301 50.167999999983372561 50.270000000000003126 50.310999999999999943 50.32699999997636553 50.298999999764880897 50.249000000000002331 50.147999999615883837 50.120000000006442065 50.096999999937025905 50.061999999999997613 50.048999999999999488 50.039999999998649116 50.036999999959824947 50.036999999999999034 50.036999999997696875 50.027999999999998693 49.992000000000167859 49.99000000000000199 49.979999999997410498 49.971000000001254193 49.957000000029246678 49.950000000031621994 49.949999999999249667 49.950000000000002842 49.966999999951745792 49.981999999999999318 49.985999999986312048 49.985999999999997101 49.989999999994125801 50.006000000000000227 50.015000000000000568 50.025999999958294495 50.041999999958314049 50.054999999999999716 50.06699999999906936 50.089999999904264882 50.106999999963065306 50.108999999999873864 50.118000000000002103 50.138999999995732537 50.146000000000000796 50.154999999969746227 50.158000000000001251 50.191999999997136683 50.236000000038686153 50.480999999721738902 50.581000000005168715 50.628999999999997783 50.675999999989116418 50.595999999999996533 50.639999999810740405 50.65799999994561631 50.666000000000884995 50.671000000000432806 50.694999999988951345 50.69499999992818573 50.683999999999997499 50.683999999965799077 50.683999999999997499 50.689999999999997726 50.701000000000000512 50.710000000000000853 50.725999999999999091 50.73899999999684951 50.74000000000000199 50.739000000000608281 50.733000000043482203 50.738999999999997215 50.764000000000002899 50.792999999993305948 50.81799999999999784 50.8299999999920189 50.835000000000015064 50.851999999989260459 50.917000000012805572 50.968000000025604379 50.982999999999996987 51.062999999832179299 51.102000000007194558 51.106999999827898762 51.106999999999999318 51.106999999999999318 51.084000000000003183 51.084000000000003183 51.089999999644376771 51.089999999640035355 51.108000000003357854 51.15899999999999892 51.206999999835893789 51.207000000000000739 51.209000000000315822 51.218000000000003524 51.230999999811793089 51.231000000000001648 51.225999999732572121 51.225999999999999091 51.231000000000001648 51.280999999999998806 51.280999999999998806 51.301000000000001933 51.307999999916354739 51.326999999999998181 51.334999999998032649 51.366999999992508208 51.408999999992467167 51.440000000002129354 51.454999999882168993 51.492999999840463943 51.508999999791399205 51.509000000000000341 51.576000000000000512
49.890999999999245063 49.895000000000003126 49.915000000001057856 49.928000000001873104 49.93200000000000216 49.909999999999818954 49.902999999992786684 49.877000000001565638 49.855000000003357741 49.838000000005280299 49.83200000000375951 49.827000000001298474 49.836999999997019017 49.868999999999196859 49.883999999993122287 49.905000000007369465 49.877000000008784752 49.838999999993511381 49.834000000005779896 49.847000000003411913 49.853000000003397929 49.862999999999999545 49.914000000039749239 49.915999999999996817 49.915999999999996817 50.118000000000002103 50.22699999999999676 50.299000000005833044 50.298999999999999488 50.258000000000002672 50.215000000000003411 50.165999999998092562 50.119999999998412932 50.078000000007683923 50.046999999999997044 50.028999999999996362 50.021000000001492936 50.02499999999810143 50.035000000001652154 50.041000000001751857 50.046999999998348585 50.048000000000001819 50.007999999996108897 49.979999999999229487 49.975000000000001421 49.965999999999027636 49.959000000000003183 49.950000000000088107 49.948999999999728061 49.949999999999761258 49.965000000003009006 49.98300000000062937 49.982999999999996987 49.985000000001335252 49.994000000003460116 50.006000000000000227 50.014999999998657643 50.030000000001614069 50.051000000001174328 50.059999999999348574 50.067000000001556259 50.066000000000002501 50.080000000001085425 50.106999999998187434 50.125000000006643575 50.140000000002181935 50.146000000000000796 50.157999999998750695 50.168000000002571426 50.192999999991243953 50.403000000021535243 50.481000000028629415 50.572000000022796939 50.548999999999999488 50.559000000001240949 50.595999999999257568 50.641999999999669058 50.664999999999999147 50.667000000000797399 50.673999999999999488 50.673999999999999488 50.673999999999999488 50.680000000000838156 50.682000000000016371 50.686999999999386546 50.691000000000002501 50.708999999998006558 50.725999999999999091 50.741000000003495529 50.74899999999932021 50.746000000000172747 50.746000000000002217 50.747999999998583576 50.756000000000234706 50.792000000000584237 50.811999999999990507 50.823000000001584908 50.826000000003432433 50.838000000013117585 50.900000000007324275 50.923000000005863797 50.965000000000003411 50.994000000016093566 51.054000000004684523 51.063000000007257029 51.079000000000000625 51.078999999998650594 51.036999999999999034 51.010000000001205933 51.026000000000003354 51.063000000007150447 51.071000000007366282 51.088999999999998636 51.159000000023439725 51.15899999999999892 51.15899999999999892 51.15899999999999892 51.170000000012706209 51.195999999999997954 51.20600000000000307 51.20600000000416685 51.222000000006254083 51.231000000000740613 51.262000000005699007 51.274000000003049138 51.281999999999996476 51.306000000003088246 51.308000000005023367 51.329999999999998295 51.36500000000000199 51.399999999997454836 51.421999999998384112 51.446000000012475084 51.448000000000000398 51.469999999999998863 51.509000000000000341
49.865999999973638523 49.880999999906897813 49.8859999998926682 49.898999999819046991 49.904999999925500731 49.902999999934813502 49.883999999920838775 49.854999999891042251 49.841999999953429779 49.826999999892940707 49.823999999902369495 49.821999999930156378 49.82199999991232886 49.829999999771118269 49.868999999452626071 49.871999999420800975 49.826999999686222509 49.801999999934814412 49.803999999873667548 49.826999999778209371 49.838999999746526726 49.84299999985237406 49.860999999602483967 49.882999999739233488 49.887999999500870274 49.889999999935753294 49.934999999846333196 50.298999998374846143 50.298999999374544245 50.248999999748157563 50.194999999515246714 50.123999999972035369 50.109999999858430897 50.046999999935863457 50.028999999892903361 50.020999999790454638 50.005999999721730376 50.012999999896756265 50.024999999944441242 50.039999999929300145 50.05199999991009463 50.051999999966696464 50.047999999991191089 50.008000000023287157 49.978000000144710668 49.971000000047972378 49.96600000000000108 49.959000000060122204 49.944000000014270313 49.943000000008275663 49.950999999996454903 49.968999999972062653 49.978999999958482192 49.979999999995442295 49.992999999965149982 49.996999999999999886 50.002000000003597791 50.014999999948642539 50.036999999908708503 50.055999999911286125 50.058999999975235085 50.057999999967776716 50.063999999918252115 50.079999999868419991 50.110999999906866265 50.129999999925495047 50.142999999958092872 50.153999999967410872 50.164999999947859521 50.193000000016944284 50.276999999888239756 50.417999999699816271 50.488999999776481786 50.519999999903262733 50.549999999996508393 50.619000000001271644 50.641999999941738508 50.64699999996274471 50.646999999855644603 50.636999999828205432 50.628999999902212892 50.63699999994197043 50.666999999823048029 50.681999999844244087 50.683999999939466363 50.689999999939459485 50.696999999970735473 50.725999999977616994 50.750999999977359778 50.756000000002465811 50.761999999980957909 50.757000000004659057 50.756000000007389872 50.747999999968214979 50.744999999948319669 50.792999999528134936 50.811999999931899197 50.819999999988027639 50.829000000001705928 50.850000000162985714 50.911000000013970634 50.94099999995742678 50.943999999986033345 50.964999999897557359 50.99299999950706308 50.992999999636786868 50.975999999799761042 50.975999999869614498 50.967999999836543168 50.967999999888242257 51.005999999496104635 51.025999999618157688 51.051999999420331733 51.078999999705601454 51.130999999213138096 51.130999999590223126 51.12699999931343342 51.130999999284405533 51.160999999655409454 51.174999999824350994 51.20099999985948358 51.203999999986031355 51.221999999912462442 51.234999999935354253 51.253999999911521002 51.272999999837026053 51.281999999795104372 51.299999999302720255 51.304999999440809688 51.322999999662087589 51.358999999813740089 51.390999999715603508 51.392999999584951354 51.412999999855905742 51.445999999841674821 51.469999999864960216
49.860000000027994815 49.860999999999997101 49.863000000000390344 49.877000000000002444 49.889000000000002899 49.88900000004191071 49.867000000035723417 49.841999999999998749 49.831999999999396778 49.814000000000142165 49.8119999999994576 49.80700000002602934 49.802999999999997272 49.802000000044785111 49.802000000044223782 49.802000000101593002 49.789000000000001478 49.788000000046615412 49.789000000000001478 49.799999999999997158 49.808000000071864122 49.811999999999997613 49.812000000134496247 49.82700000000023266 49.826999999999955548 49.876999999995142332 49.901999999988589707 49.950000000000002842 50.220999999999996533 50.195000000124025519 50.137000000005699007 50.116999999999563897 50.092000000192747677 50.034000000080737891 50.006000000000000227 49.975999999999999091 49.972000000000136311 49.990999999999999659 50.01299999999744017 50.024999999999998579 50.041000000040689599 50.0480000000217089 50.043999999991406469 50.012999999997106215 49.995999999998417707 49.976999999997701707 49.966000000001798753 49.96600000000000108 49.946999999993607844 49.944000000000002615 49.951000000000000512 49.963000000000000966 49.969999999999998863 49.97899999999967946 49.989000000000210377 49.99699999997719857 50.001999999999256374 50.005000000003434479 50.018000000000000682 50.037000000040116277 50.056000000043127329 50.054000000014561067 50.054000000000002046 50.064000000000000057 50.09100000000000108 50.114000000017618675 50.134000000018062337 50.147000000001042963 50.159000000000006025 50.194000000048689003 50.252999999987800095 50.353000000141399539 50.441000000128020986 50.500000000042042814 50.549999999999997158 50.619000000000752948 50.635000000019537936 50.639000000073288277 50.615999999996304837 50.615999999999999659 50.607999999998533269 50.625 50.62900000000775691 50.662999999998682199 50.67099999999967963 50.676999999999999602 50.690999999992492064 50.722999999999998977 50.74500000000919897 50.756000000000000227 50.758000000008898667 50.758000000000002672 50.758000000000002672 50.740999999999999659 50.734000000026782118 50.734999999999999432 50.801999999996283464 50.818000000000964178 50.829000000000000625 50.884999999990547792 50.913999999997230361 50.931999999998389228 50.941000000031742445 50.943000000023531015 50.932999999999999829 50.914999999999992042 50.933000000069839075 50.948000000063309756 50.948000000000000398 50.944000000065621236 50.943999999994652228 50.943999999996655959 50.927999999999997272 51.013999999997501789 51.035000000209947757 51.043000000251652182 51.043000000155970497 51.042999999999999261 51.087000000000003297 51.137000000000000455 51.173000000000001819 51.201000000000000512 51.204000000000000625 51.222000000042037016 51.235000000046433399 51.238000000079999552 51.238000000102417175 51.213999999999998636 51.237000000000001876 51.281999999999996476 51.319000000000002615 51.329999999999998295 51.341999999995735493 51.381999999999997897 51.412000000084205453 51.441000000000009607
49.847999999950111771 49.847999999949792027 49.855000000000529781 49.862000000000001876 49.870999999932969615 49.871000000000002217 49.844999999960364789 49.833999999949135429 49.813999999973120225 49.806999999998929241 49.796999999999940201 49.796000000000134378 49.790000000000105729 49.782999999983545081 49.778999999949753885 49.759000000000000341 49.769000000000275463 49.773999999992476262 49.773999999973128183 49.770000000000663931 49.770000000000003126 49.770000000000003126 49.77300000000000324 49.77300000000000324 49.768999999787041588 49.781999999999996476 49.82699999971600846 49.930999999930989475 49.950000000000002842 50.022000000014585908 50.060000000000002274 50.060000000008869847 50.014000000000756074 49.998000000001319165 49.972000000002758213 49.906000000011310647 49.906000000013257534 49.963000000000000966 49.991000000002642878 50.012999999999998124 50.02300000000000324 50.039999999997050395 50.030999999999998806 50.023000000002092236 49.998000000072593707 49.996000000071894931 49.977000000004828451 49.971999999998594433 49.967999999999136662 49.958999999998489727 49.959000000025469035 49.96600000000000108 49.968999999998736428 49.978000000009934922 49.989000000080814345 50.005000000077949096 50.003999999999997783 50.003999999998974602 50.006000000000000227 50.019999999932643675 50.037999999998099554 50.046999999936218728 50.050999999958726505 50.051999999977155653 50.06799999999999784 50.096999999935910353 50.115000000004130243 50.136000000002361787 50.146999999999998465 50.194000000001807393 50.247999999999997556 50.317999999846058756 50.381999999997127304 50.440999999992442326 50.5 50.604000000002876902 50.603999999999999204 50.597999999999998977 50.590999999904894935 50.588000000000000966 50.588000000000000966 50.588000000000000966 50.607999999999996987 50.64099999992063772 50.661000000000001364 50.662999999946315199 50.676999999999999602 50.722999999999998977 50.742999999989571336 50.750999999979185873 50.756999999994562245 50.756999999996160966 50.747999999959965578 50.733999999971231887 50.72500000000189857 50.728999999999999204 50.749999999997612576 50.807000000001949047 50.830999999993835559 50.871000000000002217 50.888000000002229228 50.918000000008362349 50.932000000000286377 50.931999999895907649 50.927999999999990166 50.902999999808699272 50.902999999999998693 50.926999999904907668 50.926999999920099071 50.922999999843803209 50.901999999822429288 50.89800000000000324 50.875 50.923999999659578464 50.926000000000001933 50.975999999741418378 51.003999999999997783 51.003999999999997783 51.003999999999997783 51.127999999045997015 51.137000000000000455 51.165999999999996817 51.176999999999999602 51.184999999859101649 51.188999999823529663 51.197000000000002728 51.196999999842660145 51.194999999999716067 51.204000000000000625 51.237000000000961109 51.271000000000000796 51.27300000000000324 51.313000000009857615 51.341999999999998749 51.378999999873400384 51.412999999889088087
49.847999999999998977 49.848000000001526644 49.858999999980937901 49.864999999987155377 49.86500000000000199 49.854000000020256778 49.835000000000000853 49.820999999999997954 49.80700000000000216 49.798000000000236298 49.796999999999997044 49.795000000004051799 49.783000000000001251 49.779000000052604946 49.766999999999271154 49.759000000001691433 49.767000000006383686 49.767000000029568696 49.767000000029568696 49.756000000056857857 49.737000000000001876 49.725999999999629608 49.729999999999996874 49.729999999999812133 49.734000000071674208 49.765999999999820602 49.781999999999996476 49.807000000519188632 49.847000000005714071 49.896000000535977392 49.896000000000000796 49.873000000595510528 49.872999999996402209 49.873000000524150721 49.868000000000279215 49.864999999999660929 49.864999999999817248 49.905999999999998806 49.942000000000000171 49.990999999999999659 49.993999999999410022 50.011999999995367716 50.023000000192645587 50.02300000000000324 50.01599999999761792 49.997999999919755965 49.997999999919755965 49.997999999919748859 49.987999999999999545 49.968000000000003524 49.96600000000000108 49.965999999999851866 49.968999999988483296 49.98000000000309484 50.009000000000000341 50.010999999975034314 50.010999999970437102 50.004999999974600655 50.006000000000000227 50.013000000006528012 50.021999999999998465 50.036000000038114877 50.045000000060547052 50.047000000041748535 50.049999999999847944 50.072000000106619666 50.099000000068265592 50.121000000002247532 50.137999999999998124 50.159999999999996589 50.228000000000001535 50.262000000000000455 50.31800000027175912 50.382000000261541572 50.418999999985231852 50.472999999999998977 50.520000000354222891 50.575000000000002842 50.575000000000002842 50.575000000054906479 50.568000000000516536 50.572000000000002728 50.58499999999630603 50.612000000000001876 50.641000000090642175 50.646999999999998465 50.661000000000001364 50.692000000003744731 50.740000000026178384 50.750999999998526846 50.754000000000736748 50.75100000002369427 50.742000000000160753 50.710999999995379994 50.710999999999998522 50.716999999999998749 50.75 50.801999999997320856 50.830999999996308247 50.862999999999999545 50.87100000007088596 50.901000000073402418 50.917999999999999261 50.905000000000740101 50.902000000001265789 50.85300000029902634 50.878999999999997783 50.942000000000000171 50.942000000333671039 50.922000000028972977 50.894000000088361446 50.878000000000000114 50.876999999995135227 50.895000000126813688 50.917000000000001592 50.92600000021094786 50.96599999999094166 50.947000000001132491 50.901000000179642768 50.879999999998034355 51.099000000376619823 51.12899999998216316 51.137999999996921474 51.149000000000832244 51.155000000000001137 51.155000000000001137 51.155000000147829553 51.155000000000001137 51.180999999999997385 51.212000000000003297 51.237000000106462494 51.250999999999997669 51.259000000000000341 51.29399999999999693 51.336999999991725474 51.372999999989211517
49.856999999997519524 49.868999999993320671 49.868999999999999773 49.871000000000002217 49.870999999998353758 49.848000000004191179 49.824000000002733657 49.808999999999997499 49.80399999999848859 49.798000000000001819 49.797000000000330999 49.795000000000236184 49.780999999999998806 49.779000000001722981 49.774000000000000909 49.767000000000003013 49.767999999999567251 49.766999999999839588 49.757000000002562956 49.74300000000310007 49.725999999999089596 49.721000000001232877 49.713999999999998636 49.716000000000370562 49.717000000000268756 49.718000000000003524 49.729999999999421334 49.744999999999997442 49.776999999995993562 49.799999999999997158 49.799999999999997158 49.801000000019797653 49.808999999999997499 49.815000000016247839 49.819000000000002615 49.829000000005372328 49.843999999997436134 49.854000000002663739 49.875000000020193625 49.942000000013166527 49.952999999999178726 49.96600000000374564 50.012000000010615963 50.029000000003556181 50.030999999999686167 50.016999999996706094 50.016999999996734516 50.017000000000003013 50.000000000001563194 49.987999999995402334 49.979999999999591864 49.966000000000555303 49.98000000000009635 49.981999999999999318 50.011000000000002785 50.012000000001009425 50.016000000001085368 50.011000000000002785 50.011000000000002785 50.012000000000533362 50.01300000000225765 50.021999999999998465 50.035000000002256115 50.035000000003293508 50.039999999999999147 50.049999999999997158 50.078000000000002956 50.106999999999999318 50.125000000002586376 50.144000000007494577 50.186000000015091871 50.228000000000001535 50.262000000000000455 50.287999999995761868 50.345999999999996533 50.419000000004636775 50.462000000015891032 50.520000000000003126 50.567000000014616035 50.564000000000000057 50.558999999999997499 50.55300000000063676 50.552999999999997272 50.587000000000003297 50.614000000013504632 50.634000000004171227 50.646999999998953967 50.666999999997337056 50.726999999996785107 50.748000000007913002 50.750999999999997669 50.744000000001896922 50.724000000008892641 50.699999999998595968 50.710999999999998522 50.716999999999998749 50.729999999999996874 50.780999999991884408 50.822999999989455944 50.858000000002533625 50.863000000001918011 50.863000000010451629 50.884999999989346975 50.847999999999998977 50.830000000024419649 50.841999999999998749 50.853000000000001535 50.862999999999999545 50.92299999998489568 50.899000000006367372 50.877000000000393243 50.859999999999999432 50.846000000006441155 50.85199999999999676 50.874000000013275269 50.895000000001907381 50.922000000018762478 50.892000000003676519 50.859000000000001762 50.859000000000001762 51.017000000037732832 51.099000000008842903 51.110000000018594335 51.112999999999999545 51.115000000000428315 51.117000000000089699 51.120000000006086793 51.128000000005904724 51.140999999999998238 51.180999999999997385 51.212000000004231026 51.23399999999995913 51.238999999999997215 51.253999999999997783 51.29399999999999693 51.337000000008636391
49.871000000041910027 49.870000000004885976 49.871000000000002217 49.874000000000002331 49.874000000000876298 49.87099999997462163 49.825000000094114228 49.821000000018628384 49.80900000007450501 49.804000000093139988 49.804000000004656101 49.797000000048463164 49.795000000043408761 49.781000000093129643 49.777000000102603394 49.775000000046610182 49.774000000051259462 49.773000000053087888 49.759000000067096892 49.743000000074054867 49.726000000079167762 49.71700000004190656 49.714000000022060988 49.71600000001397035 49.716000000000477144 49.713999999965437837 49.700000000000002842 49.700000000000002842 49.721999999897555256 49.726999999914845318 49.739999999942632769 49.750999999952547626 49.763999999950954134 49.773999999950873985 49.788999999895729331 49.814999999880988923 49.827999999942200304 49.838999999946125286 49.84799999990686814 49.857999999850811434 49.899999999804421691 49.95099999977128391 49.965999999930147624 50.017999999757861929 50.028999999948780442 50.028999999962749712 50.027999999999998693 50.019999999999114948 50.00699999994767353 49.996000000003036234 49.985000000050639812 49.981000000166510233 49.981000000004655703 49.981000000005650463 49.98799999997671506 50.010999999920841219 50.011999999934545258 50.01099999996274903 50.01099999996274903 50.010999999937489235 50.011999999944123374 50.012999999953429153 50.018999999962744596 50.02299999997672586 50.029999999951876077 50.040999999995342762 50.061999999974290176 50.085000000000000853 50.110999999989637388 50.14299999998516455 50.1619999998999333 50.186999999883589396 50.222999999828438433 50.245999999841679085 50.287999999753196789 50.332999999560421145 50.401999999592568713 50.472999999757561795 50.530999999543958268 50.553999999883586725 50.542999999930145805 50.528999999957868283 50.527999999871482828 50.552999999795453334 50.581999999864954987 50.611999999853040322 50.633999999874276909 50.658999999948783 50.70199999991318407 50.73999999984057041 50.739999999888709681 50.724999999986025045 50.686000000027938484 50.684999999998375131 50.701999999876100844 50.710999999958090712 50.724999999916178695 50.785999999785595094 50.83299999992960494 50.850999999941201679 50.854999999967397173 50.854999999938563349 50.841999999944121669 50.822999999962746642 50.823999999957635509 50.825999999971337218 50.841999999916161812 50.858999999845956097 50.858999999682808379 50.858999999197997965 50.856999999296846227 50.838999999506398808 50.83899999971418282 50.845999999810430836 50.849999999897555369 50.851999999888235493 50.873999999708395592 50.858999999812674275 50.85600000000018639 50.85900000000022203 50.882000000055874978 50.974999999685032037 51.044999999673592583 51.055999999438014925 51.067999999552966983 51.079999999618330264 51.097999999714431851 51.102999999549979293 51.106999999916183697 51.140999999841675105 51.184999999855648412 51.205999999883623275 51.228999999865983739 51.238999999976712729 51.260999999980398911 51.293999999934804634
49.880000000035252583 49.871000000000002217 49.871000000000002217 49.874000000000002331 49.873999999972923547 49.863000000003601997 49.844999999999998863 49.825000000083690566 49.825000000065578831 49.823999999999998067 49.805000000002713989 49.804000000000179682 49.804000000000002046 49.801000000096763642 49.798999999999999488 49.784999999999996589 49.784999999999996589 49.780999999999998806 49.773000000101717433 49.759000000000000341 49.7430000001372008 49.725999999999999091 49.719000000000001194 49.71899999999994435 49.715999999999979764 49.70700000003418495 49.700000000000002842 49.700000000000002842 49.700000000000002842 49.707999999946750336 49.726999999921382312 49.739999999980838652 49.754000000002548632 49.766999999999860904 49.774000000000000909 49.789000000000001478 49.816000000000002501 49.827999999953199506 49.827999999919725838 49.826999999999998181 49.857999999996650331 49.899999999802240325 49.950999999788727735 49.965999999959784361 50.017999999967102553 50.020999999999773422 50.028000000001320302 50.020000000000003126 49.996000000000002217 49.996000000000002217 49.996000000000002217 50.005000000000002558 49.981999999999999318 49.98200000009246935 49.983000000034344623 49.99399999999987898 49.997999999974659602 50.003000000000000114 50.002999999971898148 50.002000000000109026 49.999999999999779732 50.003000000000000114 50.011000000000151999 50.018000000000000682 50.022999999979809616 50.039999999999999147 50.05700000000000216 50.085000000000000853 50.108999999984291662 50.140000000000000568 50.146999999994264385 50.161999999941372153 50.186000000000760224 50.212000000005922118 50.234999999999999432 50.266999999876539107 50.345999999681069426 50.41899999999999693 50.46600000000000108 50.528999999939713916 50.527999999999998693 50.519999999963886239 50.498999999878847689 50.523999999996604515 50.552999999887724414 50.581999999875215224 50.606999999892828157 50.648000000010178212 50.685000000004237108 50.716999999999998749 50.723999999999996646 50.721999999999859199 50.692000000007951144 50.684999999927754288 50.683999999999997499 50.701999999999998181 50.707000000000000739 50.74000000000000199 50.82299999999912643 50.838000000000697298 50.847999999738611621 50.841999999858337844 50.829999999954473822 50.814999999967994881 50.81799999999999784 50.822000000000002728 50.823999999928240356 50.826000000000000512 50.812999999997096268 50.741999999990305525 50.705999999943763612 50.732999999999996987 50.777999999710509371 50.805999999999997385 50.82799999999657814 50.828000000000002956 50.832000000000000739 50.832000000000000739 50.856000000000420869 50.858999999992533958 50.894000000005647166 50.929000000000002046 50.974999999938518158 50.974999999763198844 50.971999999742358511 50.997999999999997556 51.037999999839456677 51.037999999999165368 51.088999999999998636 51.106999999999999318 51.15399999992465041 51.189999999999997726 51.210000000001457465 51.234000000000001762 51.259000000005293884 51.280000000000001137
49.886000000003420496 49.86500000000000199 49.856000000000001648 49.860999999999322085 49.867000000000700766 49.864000000000785917 49.859000000000563091 49.846000000002788966 49.844999999999998863 49.838000000000000966 49.833000000006634878 49.8300000000043255 49.825000000000002842 49.825000000008031975 49.829000000000000625 49.829000000011639315 49.819000000000002615 49.805999999997204952 49.804000000000002046 49.793000000000105842 49.776000000000003354 49.762999999999998124 49.743000000000002103 49.734000000003895536 49.723999999999996646 49.719000000004349715 49.708000000002840579 49.699999999998382805 49.695999999999671104 49.694000000000002615 49.707999999993496942 49.735000000001498677 49.754999999999917293 49.758000000000002672 49.770000000000443663 49.780999999999998806 49.798000000000001819 49.810999999999999943 49.807999999994741813 49.810999999999900467 49.820999999999997954 49.877999999984197643 49.902000000000001023 49.951000000000988166 49.954999999999998295 49.96600000000000108 49.957999999979868733 49.957999999999998408 49.964999999991633217 49.98499999999905441 50.005000000000002558 50.009000000000000341 50.008000000005871755 50.005000000002766569 49.991999999999976012 49.991000000000120451 49.992000000000622606 49.995999999998424812 49.997999999998597787 49.996999999998713804 49.999000000000002331 50.002000000001210367 50.006999999999997897 50.015999999999216641 50.017999999999148031 50.034000000003942432 50.051000000000001933 50.084999999997293685 50.107999999999996987 50.131000000002742922 50.141999999998724036 50.148000000000394039 50.164000000000001478 50.186999999995400401 50.209999999999894271 50.231000000003703576 50.267000000000003013 50.369999999991378559 50.423999999985589682 50.46600000000000108 50.470999999982815609 50.471999999987453123 50.472000000000001307 50.497999999999997556 50.530999999988438276 50.552999999999997272 50.579999999999998295 50.606999999991415962 50.647999999987852959 50.684999999984327701 50.716999999999998749 50.703000000000002956 50.692000000002558124 50.656999999997836426 50.656999999989807293 50.68399999999643768 50.702000000003245361 50.728999999983578562 50.759000000000000341 50.772999999979901986 50.813000000000151601 50.832999999999998408 50.812999999995277278 50.804999999999999716 50.804999999996546478 50.816999999997150894 50.816999999993939241 50.812999999980348775 50.740000000011463044 50.692999999994654559 50.691999999994926895 50.692999999999990735 50.70600000000000307 50.745999999991788343 50.745999999997501106 50.732999999999996987 50.74099999999859989 50.784999999999996589 50.819999999990770334 50.855999999982373083 50.893999999999998352 50.912999999999996703 50.915999999984336455 50.907999999983211126 50.908000000000001251 50.95600000000000307 50.997999999999997556 51.020999999995034102 51.03799999998440029 51.094000000000001194 51.132999999989515061 51.171000000003687092 51.209999999999354259 51.233999999996740371 51.254999999996769589 51.27899999999339542
49.868000000009814698 49.862999999999999545 49.856000000000001648 49.860999999999997101 49.866999999999997328 49.866999999999997328 49.864000000000515911 49.859000000000612829 49.859000000000001762 49.858999999999781494 49.853000000000001535 49.845999999999996533 49.841999999999998749 49.841999999995373116 49.847999999995820986 49.850000000001799094 49.850999999999999091 49.853000000000001535 49.853000000000001535 49.848999999993715448 49.811999999999997613 49.810999999999999943 49.804999999984850945 49.798000000000001819 49.771999999999998465 49.732000000003459661 49.73199999999471288 49.720999999999996533 49.701999999989709522 49.695999999999997954 49.708000000002563468 49.753999999999997783 49.755000000000002558 49.755000000000265459 49.757000000001291085 49.757000000002939544 49.781000000000005912 49.798000000000001819 49.805000000001896865 49.80700000000000216 49.811999999999997613 49.856999999995352368 49.881000000007198025 49.902000000000001023 49.914000000000001478 49.924000000002067168 49.925999999999518764 49.926000000007036306 49.944000000000002615 49.96500000000747832 50.009000000000000341 50.024000000000000909 50.034999999999996589 50.027000000000001023 50.005000000000720206 49.996999999999907516 49.995000000000850093 49.994999999999997442 49.995000000002256968 49.98800000000140642 49.988000000001022727 49.999000000000002331 50.008000000000606633 50.014000000000088164 50.016000000000801151 50.022999999998368992 50.035000000006633059 50.070000000010338681 50.099000000003037769 50.115000000000179625 50.131000000001350259 50.142000000001509363 50.148999999995965027 50.165999999994703273 50.195999999999997954 50.212000000000003297 50.23099999999903531 50.320999999999997954 50.375999999999997669 50.424000000012696887 50.4450000000000216 50.445000000000000284 50.445000000000000284 50.468000000000003524 50.503000000015411786 50.530999999998677197 50.557999999998976648 50.580000000006300809 50.620000000010605845 50.664000000000001478 50.685999999999999943 50.685999999999999943 50.670000000004343121 50.649999999999998579 50.649999999999998579 50.660999999999660304 50.696999999995476571 50.728999999999999204 50.759000000000000341 50.772000000000204523 50.781000000008674533 50.822000000000002728 50.82199999999802742 50.805000000001122373 50.801000000000001933 50.801000000004016499 50.795999999999999375 50.740000000013942838 50.702000000000460034 50.672000000003521336 50.672000000003514231 50.671999999999997044 50.690000000009341363 50.694000000008252016 50.706000000008145889 50.715000000001914771 50.731000000000001648 50.740999999999999659 50.784999999999996589 50.814999999999578506 50.879999999998766214 50.893000000004981587 50.893000000005059746 50.86500000000000199 50.861999999991525101 50.927999999998668557 50.975999999999999091 51.00900000000513046 51.029000000000003467 51.08200000001748009 51.109999999999999432 51.14199999999065227 51.177999999999997272 51.215000000006803305 51.245000000008730012 51.279000000000003467
49.862999999999999545 49.856999999996993722 49.854999999999996874 49.854999999996721272 49.866999999999997328 49.866999999999997328 49.863999999999684576 49.862000000000001876 49.860000000002202114 49.861999999999888189 49.865000000000804903 49.857999999999996987 49.85199999999999676 49.85200000002593157 49.852000000000302293 49.864000000000089585 49.874000000000002331 49.890000000003496439 49.914999999999999147 49.92100000027343043 49.91900000000697446 49.887000000196053406 49.875 49.872000000000518583 49.842999999995079463 49.805999999999997385 49.780999999999998806 49.780000000000036664 49.756000000000000227 49.756000000003389516 49.789000000003376556 49.767000000000003013 49.755000000000762839 49.746000000000002217 49.735999999988834475 49.731000000000001648 49.730999999999141892 49.752000000000002444 49.797999999918332037 49.80700000000000216 49.814999999998441638 49.823999999999891486 49.856999999999999318 49.880999999889432672 49.883000000000002672 49.884000000000519037 49.889999999998380531 49.89800000000000324 49.92399999999479121 49.946000000003159869 50.008999999990138008 50.037999999999996703 50.042999999999999261 50.043000000003551975 50.027000000056467854 50.005000000021020412 49.996000000000002217 49.995000000000878515 49.986999999998715793 49.98099999996968279 49.985999999999997101 49.987000000000001876 50.003999999999997783 50.009999999982078123 50.009999999984636077 50.015000000000000568 50.030999999959348656 50.056999999958193825 50.070999999961024685 50.098000000005725951 50.117999999955699764 50.129999999976540437 50.142999999999446459 50.154999999943882472 50.175999999968411203 50.198999999963234586 50.224999999988355626 50.267000000000003013 50.321000000012816145 50.375999999998953172 50.399999999999998579 50.411999999999999034 50.423999999998905253 50.43200000000000216 50.467999999902154684 50.503000000000000114 50.527000000002573188 50.56499999994669281 50.601999999988066747 50.63499999999999801 50.684999999956481531 50.685000000000002274 50.656999999999996476 50.652000000000001023 50.652000000001038416 50.65600000000080172 50.697000000000002728 50.740999999999999659 50.752999999981255996 50.771999999999998465 50.780999999999998806 50.807999999999999829 50.807999999999999829 50.801999999991203083 50.782999999946447645 50.779999999872323713 50.748999999943727346 50.717999999948879974 50.677999999957542343 50.655999999999998806 50.655999999999998806 50.650999999946833441 50.648999999974400055 50.650999999981827671 50.664999999979819734 50.70600000000000307 50.721999999946177695 50.732999999997943519 50.740999999999999659 50.785000000001311093 50.835999999894170287 50.873999999892710377 50.835999999999998522 50.838999999999998636 50.838999999839259658 50.864999999827411159 50.975999999999999091 50.978999999999999204 51.015999999972613921 51.032999999872906471 51.081999999938631163 51.11599999999211974 51.146999999989553487 51.185000000000002274 51.218999999926126065 51.291000000015166904
49.856999999948776292 49.853999999912915086 49.849999999939555551 49.848999999931159266 49.848999999904883396 49.852999999794270991 49.859999999819308414 49.859999999845243224 49.859999999948414029 49.861999999948295681 49.865999999976715173 49.865999999956969191 49.858000000017455022 49.85600000001598886 49.863999999999997215 49.874000000013978706 49.890000000034859795 49.915000000018622472 49.92400000009778438 49.945000000246807303 49.979000000135044957 49.979000000095894052 49.962000000135191158 49.956000000140633688 49.922000000230937644 49.890000000525283497 49.870000000377181948 49.849000000437712288 49.84600000045168855 49.846000000228166016 49.80900000032033148 49.796000000195576263 49.772000000113770568 49.746000000121078699 49.731000000125462179 49.728000000051238771 49.731000000029872865 49.743000000080407119 49.766000000055399255 49.801999999892899496 49.806999999943677437 49.804999999827941792 49.804999999810789291 49.838999999739343139 49.839999999772850003 49.838999999827144904 49.83999999993015706 49.846999999930154956 49.872999999878921074 49.923999999749874235 50.029999999461495008 50.044999999986032435 50.043999999990681715 50.042999999952549217 50.027999999958090882 50.004999999974067748 49.994999999939459201 49.981999999956165937 49.971999999990686092 49.969000000008534812 49.970000000001455476 49.98599999999432697 49.996999999948947391 50.003999999967888357 50.005999999958092417 50.006999999942550517 50.016999999953434042 50.039999999986029877 50.056999999999995055 50.07299999999297313 50.100999999999999091 50.119000000001385331 50.136000000026406553 50.151000000008863822 50.176000000009324253 50.191999999922209952 50.204999999887313322 50.227999999868110592 50.26699999972628774 50.310999999794368875 50.354999999615337458 50.379999999874691241 50.39699999985908363 50.417999999823237545 50.431999999934809864 50.482999999925489476 50.502999999839474299 50.526999999829783405 50.579999999892898188 50.633999999946233572 50.667999999997114458 50.667999999998002636 50.653000000008979953 50.650000000000062528 50.651000000000131251 50.656000000000005912 50.699999999990801314 50.740999999940072485 50.747999999990057063 50.752999999997001623 50.770999999960011451 50.786999999925491522 50.799999999864958511 50.782999999832050264 50.74899999982790888 50.748999999749713652 50.71799999981055862 50.677999999925496866 50.655999999861990091 50.63099999993976752 50.630999999972409853 50.638999999968469012 50.638999999999889212 50.643999999976713866 50.652999999962915467 50.688999999948102015 50.701999999967405586 50.721999999900070577 50.731999999855645456 50.745999999938248948 50.790999999886956573 50.833999999874272646 50.833999999897564237 50.835999999994804455 50.841999999999472948 50.864999999917586138 50.975999999762514392 50.976999999990525225 50.982999999998867224 51.033000000000001251 51.082000000031037246 51.110000000183084978 51.147000000044620549 51.172000000006804044 51.209000000011641873 51.290999999939465681
49.845999999999996533 49.844000000000107775 49.843000000033391927 49.84100000000000108 49.838000000000405976 49.829000000000000625 49.838999999999998636 49.841999999999998749 49.853999999999999204 49.856000000000015859 49.861000000021114431 49.860999999999997101 49.860000000000539444 49.858000000001048591 49.864000000001489354 49.877000000000002444 49.89800000000000324 49.918999999994717598 49.944999999997953921 49.998000000004154231 50.008000000000002672 50 49.990999999878191318 49.987999999999175316 49.972999999780249425 49.951000000000000512 49.951000000000000512 49.942999999589282822 49.942999999799646105 49.895000000000003126 49.876999999814501052 49.838000000000000966 49.795999999999999375 49.77200000000490121 49.757999999888554044 49.737999999958326214 49.738000000002081435 49.751999999999362956 49.771999999998847386 49.778999999998298165 49.795000000002730189 49.785000000131987008 49.78300000000082548 49.78300000000040626 49.814000000094246445 49.819000000000002615 49.825000000026193447 49.832000000041958288 49.847000000000001307 49.873000000002406296 49.967000000308566143 50.042000000012684779 50.042000000095356427 50.032000000040305565 50.019000000038047915 50 49.981999999999999318 49.972000000008520715 49.970000000007985363 49.969999999999998863 49.969999999999998863 49.985000000006280629 49.986000000046331593 49.997000000055052737 49.997000000000575426 49.999999999999722888 50.006999999996359918 50.037000000001569333 50.056999999961973913 50.07299999999580109 50.100999999999999091 50.118999999968529835 50.13899999996311152 50.153000000005469872 50.177999999994923996 50.182999999999992724 50.192000000000000171 50.213000000000000966 50.235999999999997101 50.267000000185745989 50.310999999999999943 50.35500000000534726 50.380000000000578098 50.397000000062298852 50.41799999999157933 50.467000000006578375 50.484000000000001762 50.506999999999997897 50.557000000066459222 50.621000000000002217 50.667999999999999261 50.667999999999999261 50.655000000000001137 50.649999999999998579 50.650999999999150702 50.655999999999998806 50.700000000115359455 50.728000000000001535 50.745999999994353402 50.753000000001328829 50.765999999999998238 50.771000000000910291 50.771000000122796791 50.74900000014863366 50.728999999999999204 50.694000000000002615 50.678000000178997198 50.662000000069255634 50.624000000132440391 50.624000000000002331 50.625 50.631999999999997897 50.639000000001864521 50.639000000000002899 50.646000000000000796 50.682000000001160345 50.695000000001634533 50.701000000000000512 50.701000000134435197 50.730000000062965171 50.769000000093441827 50.80700000000000216 50.811999999999983402 50.83399999999621599 50.842000000003892524 50.847000000010510234 50.924999999999911893 50.97699999999999676 50.982999999999996987 51.033000000000001251 51.085999999993290999 51.129999999990843662 51.157999999997514351 51.172000000002732634 51.209000000018242815 51.27799999998615732
