-1375.654174805 -1375.710571289 -1375.861938477 -1375.939819336 -1376.116943359 -1376.300292969 -1376.502319336 -1376.718139648 -1376.977416992 -1377.257324219 -1377.536499023 -1377.829711914 -1378.113037109 -1378.346679688 -1378.624755859 -1378.968872070 -1379.361816406 -1379.737182617 -1380.104248047 -1380.486572266 -1380.869750977 -1381.246826172 -1381.625488281 -1382.014160156 -1382.416137695 -1382.806396484 -1383.184326172 -1383.506958008 -1383.791381836 -1384.008666992 -1384.216064453 -1384.465942383 -1384.803344727 -1385.149902344 -1385.518676758 -1385.857788086 -1386.146484375 -1386.443725586 -1386.734252930 -1387.018188477 -1387.281860352 -1387.596557617 -1387.952148438 -1388.343505859 -1388.699829102 -1389.018554688 -1389.321655273 -1389.593872070 -1389.850585938 -1390.110473633 -1390.403808594 -1390.714843750 -1391.039550781 -1391.377929688 -1391.716552734 -1392.028076172 -1392.310546875 -1392.608642578 -1392.921875000 -1393.244140625 -1393.566162109 -1393.845703125 -1394.110839844 -1394.387573242 -1394.684082031 -1395.031616211 -1395.398925781 -1395.724609375 -1396.027099609 -1396.302612305 -1396.511108398 -1396.674316406 -1396.850952148 -1397.106567383 -1397.452270508 -1397.788574219 -1398.128540039 -1398.458618164 -1398.755859375 -1398.942993164 -1399.143554688 -1399.377807617 -1399.691284180 -1400.228393555 -1400.755371094 -1401.381958008 -1401.733154297 -1401.588989258 -1401.963745117 -1402.774414062 -1402.807983398 -1403.043823242 -1403.190063477 -1403.323608398 -1403.527343750 -1403.784912109 -1404.045776367 -1404.033325195 -1403.959228516 -1403.785888672 -1403.784301758 -1403.746948242 -1403.722534180 -1404.072021484 -1404.225585938 -1404.449707031 -1404.761596680 -1404.722900391 -1404.864746094 -1405.014770508 -1405.230590820 -1405.647949219 -1406.035766602 -1406.207885742 -1406.399047852 -1406.701171875 -1407.241699219 -1408.060180664 -1409.007080078 -1409.488769531 -1409.693725586 -1409.925659180 -1410.029296875 -1410.190185547 -1410.401245117 -1410.543701172 -1410.640502930 -1410.820556641 -1411.038818359 -1411.210083008 -1411.381347656 -1411.471069336 -1411.619506836 -1411.776855469 -1411.874877930 -1412.094238281 -1412.320678711 -1412.551635742 -1412.419921875 -1412.198608398 -1412.224121094 -1412.379272461 -1412.684448242 -1413.203369141 -1413.719116211 -1413.958618164 -1414.025756836 -1414.053100586 -1414.211303711 -1414.739868164 -1414.761230469 -1414.853393555 -1415.055053711 -1415.421142578 -1415.621948242 -1415.693969727 -1415.750366211 -1415.775024414 -1415.795043945 -1415.950439453 -1416.411865234 -1416.802246094 -1416.959838867 -1417.252563477 -1417.924438477 -1418.741455078 -1419.450805664 -1419.354370117 -1419.446044922 -1419.601318359 -1420.063842773 -1420.960571289 -1421.264892578 -1421.920654297 -1422.139892578 -1422.235595703 -1422.328369141 -1422.429931641 -1422.611572266 -1422.523071289 -1422.102539062 -1422.481567383 -1422.696533203 -1423.120361328 -1423.769775391 -1424.507812500
-1375.770507812 -1375.729003906 -1375.763671875 -1375.839965820 -1376.009887695 -1376.208129883 -1376.415527344 -1376.650390625 -1376.927734375 -1377.215698242 -1377.506469727 -1377.781250000 -1378.046508789 -1378.314086914 -1378.567749023 -1378.889526367 -1379.225097656 -1379.574218750 -1379.977539062 -1380.399902344 -1380.801513672 -1381.181884766 -1381.573974609 -1381.980346680 -1382.370727539 -1382.728027344 -1383.062988281 -1383.378051758 -1383.677734375 -1383.942260742 -1384.162475586 -1384.418212891 -1384.740844727 -1385.074951172 -1385.447021484 -1385.793701172 -1386.109375000 -1386.416259766 -1386.701171875 -1386.980224609 -1387.270751953 -1387.612426758 -1387.982666016 -1388.363159180 -1388.704223633 -1389.021240234 -1389.338500977 -1389.625122070 -1389.887939453 -1390.153564453 -1390.429931641 -1390.723144531 -1391.052734375 -1391.383300781 -1391.690185547 -1391.975097656 -1392.252563477 -1392.547973633 -1392.869750977 -1393.214599609 -1393.561401367 -1393.876586914 -1394.163452148 -1394.431640625 -1394.725341797 -1395.068481445 -1395.423950195 -1395.755859375 -1396.066772461 -1396.349487305 -1396.574584961 -1396.785400391 -1397.012329102 -1397.290283203 -1397.603759766 -1397.914794922 -1398.241699219 -1398.534912109 -1398.780883789 -1398.935058594 -1399.085937500 -1399.365600586 -1399.793334961 -1400.322265625 -1400.864746094 -1401.440551758 -1401.633300781 -1401.759765625 -1402.202514648 -1402.764526367 -1402.770629883 -1402.915527344 -1403.219970703 -1403.324462891 -1403.475830078 -1403.836425781 -1404.016845703 -1403.994750977 -1403.883789062 -1403.617675781 -1403.538452148 -1403.524414062 -1403.606689453 -1404.143066406 -1404.317260742 -1404.459838867 -1404.712646484 -1404.855590820 -1404.776000977 -1404.903564453 -1405.222045898 -1405.762329102 -1405.979614258 -1406.148071289 -1406.328247070 -1406.594116211 -1407.141479492 -1408.095458984 -1408.980102539 -1409.202758789 -1409.446777344 -1409.718139648 -1409.910888672 -1410.245727539 -1410.455810547 -1410.542114258 -1410.626586914 -1410.765380859 -1410.996459961 -1411.244628906 -1411.432373047 -1411.565185547 -1411.703247070 -1411.758422852 -1411.881225586 -1412.136108398 -1412.221069336 -1412.346557617 -1412.366455078 -1412.334594727 -1412.379638672 -1412.535400391 -1412.829711914 -1413.184204102 -1413.582519531 -1413.910522461 -1414.064941406 -1414.184570312 -1414.388549805 -1414.788208008 -1414.817138672 -1414.729370117 -1414.766113281 -1415.131591797 -1415.573486328 -1415.738525391 -1415.777709961 -1415.795898438 -1415.969360352 -1416.548706055 -1416.884033203 -1417.050781250 -1417.051513672 -1417.210571289 -1417.985961914 -1418.880004883 -1419.226684570 -1419.251464844 -1419.443725586 -1419.800415039 -1420.352416992 -1420.713623047 -1421.010131836 -1421.460327148 -1421.947265625 -1422.202636719 -1422.398559570 -1422.501342773 -1422.634399414 -1422.676513672 -1422.613403320 -1422.806274414 -1423.048950195 -1423.300170898 -1423.630249023 -1424.415405273
-1375.891723633 -1375.855468750 -1375.758056641 -1375.751220703 -1375.866455078 -1376.038452148 -1376.271484375 -1376.543945312 -1376.849853516 -1377.141967773 -1377.444091797 -1377.703857422 -1377.960571289 -1378.237792969 -1378.502075195 -1378.817260742 -1379.117675781 -1379.439697266 -1379.839599609 -1380.273803711 -1380.687622070 -1381.092773438 -1381.507568359 -1381.926391602 -1382.314453125 -1382.663085938 -1382.987304688 -1383.305786133 -1383.599731445 -1383.871582031 -1384.133300781 -1384.426147461 -1384.750000000 -1385.085449219 -1385.442993164 -1385.772949219 -1386.096069336 -1386.404418945 -1386.677734375 -1386.961303711 -1387.300292969 -1387.678710938 -1388.060180664 -1388.430297852 -1388.764160156 -1389.071289062 -1389.366821289 -1389.637817383 -1389.902954102 -1390.184082031 -1390.464599609 -1390.752685547 -1391.068237305 -1391.382934570 -1391.680664062 -1391.963012695 -1392.243530273 -1392.548217773 -1392.853393555 -1393.190673828 -1393.548095703 -1393.864135742 -1394.158447266 -1394.449218750 -1394.741333008 -1395.054321289 -1395.373168945 -1395.704956055 -1396.037353516 -1396.338867188 -1396.603515625 -1396.874511719 -1397.156127930 -1397.468139648 -1397.791259766 -1398.094726562 -1398.367065430 -1398.583129883 -1398.783935547 -1398.964965820 -1399.104003906 -1399.345825195 -1399.725952148 -1400.272338867 -1400.870971680 -1401.512695312 -1401.770141602 -1402.099609375 -1402.360961914 -1402.765014648 -1402.870117188 -1402.915039062 -1403.132812500 -1403.240600586 -1403.359252930 -1403.676635742 -1403.999755859 -1403.849975586 -1403.687133789 -1403.382934570 -1403.361694336 -1403.478515625 -1403.974975586 -1404.204956055 -1404.357910156 -1404.474487305 -1404.556762695 -1404.747802734 -1404.704345703 -1404.906250000 -1405.253295898 -1405.550415039 -1405.929077148 -1406.169677734 -1406.458862305 -1406.672851562 -1407.064697266 -1407.895263672 -1408.813598633 -1409.055297852 -1409.284912109 -1409.478759766 -1409.779785156 -1410.145874023 -1410.326538086 -1410.499511719 -1410.578979492 -1410.744384766 -1411.033813477 -1411.312500000 -1411.447143555 -1411.597045898 -1411.767578125 -1411.730590820 -1411.752563477 -1411.924804688 -1412.075927734 -1412.127685547 -1412.272583008 -1412.470336914 -1412.541503906 -1412.712280273 -1412.950073242 -1413.224365234 -1413.623413086 -1413.989379883 -1414.133422852 -1414.225952148 -1414.489624023 -1414.945678711 -1415.204101562 -1414.973876953 -1414.808349609 -1414.952392578 -1415.391967773 -1415.737915039 -1415.893432617 -1416.107543945 -1416.363037109 -1416.894042969 -1417.087768555 -1417.128295898 -1417.024658203 -1417.008422852 -1417.743530273 -1418.874511719 -1419.165527344 -1419.336791992 -1419.475830078 -1419.769287109 -1420.455932617 -1420.675170898 -1420.860961914 -1421.122436523 -1421.752075195 -1422.008544922 -1422.203735352 -1422.498413086 -1422.713256836 -1423.180297852 -1423.170898438 -1422.980957031 -1423.241821289 -1423.358642578 -1423.507202148 -1423.915771484
-1375.969360352 -1375.967651367 -1375.854858398 -1375.696655273 -1375.685913086 -1375.920288086 -1376.101684570 -1376.378540039 -1376.699584961 -1377.009399414 -1377.330444336 -1377.610351562 -1377.888183594 -1378.146850586 -1378.433715820 -1378.722290039 -1379.024291992 -1379.346557617 -1379.700683594 -1380.088867188 -1380.485961914 -1380.916992188 -1381.372314453 -1381.817504883 -1382.213012695 -1382.568237305 -1382.884033203 -1383.188110352 -1383.472656250 -1383.749511719 -1384.060913086 -1384.406738281 -1384.752685547 -1385.090698242 -1385.425659180 -1385.715576172 -1386.035156250 -1386.386352539 -1386.671142578 -1386.951538086 -1387.304199219 -1387.691650391 -1388.077880859 -1388.460937500 -1388.801757812 -1389.088378906 -1389.340820312 -1389.606445312 -1389.890869141 -1390.187866211 -1390.472290039 -1390.769409180 -1391.084594727 -1391.406250000 -1391.715332031 -1392.012573242 -1392.296508789 -1392.571533203 -1392.866333008 -1393.198120117 -1393.539062500 -1393.858886719 -1394.160156250 -1394.449218750 -1394.728515625 -1395.010009766 -1395.307739258 -1395.639282227 -1395.967651367 -1396.290649414 -1396.606445312 -1396.934814453 -1397.261108398 -1397.585937500 -1397.900024414 -1398.169555664 -1398.387451172 -1398.574340820 -1398.782592773 -1398.950439453 -1399.125976562 -1399.411254883 -1399.708984375 -1400.154052734 -1400.658325195 -1401.395751953 -1401.822509766 -1402.093383789 -1402.307739258 -1402.630859375 -1402.940429688 -1402.868774414 -1402.993164062 -1402.923217773 -1403.271484375 -1403.482299805 -1403.502197266 -1403.568603516 -1403.665161133 -1403.562500000 -1403.325561523 -1403.473632812 -1404.107421875 -1404.210449219 -1404.202880859 -1404.312988281 -1404.404907227 -1404.574462891 -1404.703979492 -1404.816650391 -1405.130126953 -1405.505981445 -1406.112792969 -1406.324462891 -1406.552612305 -1406.745483398 -1407.046142578 -1407.795166016 -1408.755371094 -1408.990966797 -1409.200805664 -1409.425292969 -1409.712280273 -1410.097900391 -1410.336059570 -1410.443603516 -1410.580200195 -1410.822509766 -1411.068359375 -1411.342163086 -1411.571777344 -1411.720581055 -1411.772094727 -1411.735961914 -1411.780151367 -1411.802001953 -1411.845458984 -1411.877441406 -1412.258544922 -1412.629882812 -1412.734252930 -1412.923583984 -1413.141479492 -1413.349243164 -1413.537353516 -1413.812133789 -1414.136596680 -1414.323486328 -1414.655273438 -1415.178466797 -1415.312866211 -1415.074218750 -1414.979370117 -1415.012329102 -1415.217773438 -1415.741577148 -1416.046630859 -1416.339965820 -1416.789916992 -1417.055664062 -1417.071044922 -1416.893066406 -1416.961914062 -1417.348754883 -1418.089721680 -1418.753051758 -1419.054809570 -1419.241210938 -1419.599121094 -1420.074951172 -1420.433837891 -1420.632568359 -1420.793579102 -1420.996704102 -1421.633056641 -1421.848388672 -1422.070190430 -1422.585571289 -1422.839233398 -1423.461303711 -1423.517944336 -1423.398803711 -1423.237182617 -1423.412109375 -1423.489501953 -1423.733032227
-1376.003051758 -1376.007080078 -1375.939086914 -1375.805908203 -1375.692871094 -1375.754028320 -1375.926879883 -1376.192504883 -1376.528686523 -1376.864990234 -1377.195800781 -1377.494995117 -1377.769653320 -1378.036132812 -1378.342529297 -1378.610717773 -1378.884887695 -1379.193969727 -1379.531127930 -1379.906860352 -1380.300415039 -1380.735473633 -1381.201538086 -1381.659057617 -1382.045654297 -1382.392456055 -1382.728149414 -1383.023071289 -1383.303344727 -1383.587158203 -1383.919677734 -1384.293090820 -1384.664672852 -1385.017333984 -1385.342895508 -1385.644897461 -1385.980468750 -1386.327026367 -1386.630004883 -1386.942260742 -1387.299926758 -1387.662719727 -1388.021240234 -1388.384643555 -1388.701171875 -1388.996337891 -1389.284667969 -1389.573364258 -1389.887084961 -1390.197265625 -1390.491210938 -1390.794677734 -1391.102783203 -1391.413085938 -1391.729980469 -1392.048461914 -1392.340576172 -1392.602416992 -1392.876342773 -1393.193237305 -1393.524291992 -1393.837402344 -1394.137451172 -1394.422119141 -1394.693237305 -1394.962768555 -1395.273925781 -1395.621337891 -1395.953857422 -1396.275268555 -1396.611694336 -1396.961669922 -1397.295043945 -1397.628784180 -1397.956542969 -1398.215942383 -1398.402587891 -1398.557861328 -1398.755615234 -1398.972900391 -1399.209106445 -1399.373168945 -1399.514892578 -1399.927978516 -1400.598754883 -1401.418212891 -1401.672973633 -1401.893920898 -1402.137329102 -1402.429443359 -1402.810668945 -1403.009887695 -1403.063354492 -1402.999389648 -1402.988525391 -1403.313110352 -1403.405395508 -1403.496093750 -1403.648925781 -1403.611206055 -1403.274169922 -1403.735351562 -1403.825805664 -1403.982543945 -1404.076538086 -1404.186889648 -1404.301635742 -1404.480224609 -1404.771362305 -1405.041503906 -1405.278198242 -1405.534790039 -1405.976806641 -1406.400512695 -1406.600219727 -1406.800903320 -1407.091796875 -1407.784057617 -1408.666381836 -1408.907104492 -1409.233398438 -1409.657592773 -1410.081542969 -1410.346191406 -1410.561279297 -1410.630859375 -1410.698486328 -1410.742553711 -1410.921142578 -1411.360229492 -1411.704956055 -1411.828857422 -1411.791870117 -1411.871337891 -1412.010498047 -1411.890625000 -1411.723022461 -1411.667236328 -1411.888061523 -1412.385009766 -1412.809814453 -1413.100952148 -1413.363281250 -1413.552124023 -1413.644287109 -1413.811035156 -1413.967895508 -1413.920654297 -1414.285888672 -1415.071166992 -1415.380004883 -1415.300781250 -1415.101196289 -1415.195922852 -1415.450439453 -1415.903198242 -1416.048950195 -1416.212646484 -1416.740112305 -1416.935424805 -1416.965209961 -1416.852783203 -1416.975708008 -1417.585815430 -1418.179931641 -1418.466674805 -1419.027099609 -1419.327758789 -1419.615478516 -1420.117553711 -1420.352050781 -1420.522338867 -1420.745117188 -1421.277465820 -1421.693969727 -1422.221801758 -1422.383178711 -1422.637207031 -1422.780639648 -1423.069335938 -1423.259399414 -1423.546508789 -1423.238647461 -1423.470825195 -1423.537109375 -1423.724731445
-1375.979003906 -1375.996215820 -1375.975219727 -1375.909057617 -1375.781616211 -1375.752685547 -1375.859252930 -1376.055297852 -1376.355712891 -1376.711791992 -1377.051757812 -1377.383911133 -1377.680908203 -1377.946777344 -1378.228027344 -1378.482543945 -1378.762695312 -1379.089111328 -1379.427368164 -1379.792602539 -1380.160766602 -1380.548828125 -1381.014648438 -1381.472290039 -1381.872558594 -1382.225463867 -1382.524780273 -1382.777221680 -1383.048095703 -1383.374389648 -1383.763549805 -1384.155761719 -1384.546752930 -1384.911987305 -1385.228027344 -1385.522338867 -1385.860473633 -1386.211303711 -1386.556274414 -1386.940063477 -1387.324096680 -1387.641845703 -1387.947631836 -1388.264892578 -1388.576416016 -1388.885009766 -1389.197143555 -1389.511718750 -1389.831176758 -1390.142700195 -1390.450683594 -1390.769165039 -1391.071899414 -1391.373168945 -1391.690307617 -1392.008666992 -1392.313476562 -1392.605224609 -1392.888916016 -1393.181762695 -1393.478515625 -1393.766601562 -1394.068603516 -1394.371459961 -1394.662353516 -1394.953491211 -1395.285766602 -1395.622070312 -1395.949584961 -1396.271850586 -1396.598876953 -1396.923950195 -1397.251464844 -1397.610107422 -1397.971557617 -1398.253417969 -1398.450805664 -1398.607055664 -1398.834228516 -1399.089233398 -1399.384887695 -1399.742797852 -1400.073242188 -1400.468261719 -1400.800170898 -1401.250732422 -1401.543090820 -1401.764282227 -1402.022827148 -1402.324462891 -1402.607177734 -1402.643066406 -1402.655029297 -1402.940307617 -1403.178955078 -1403.403930664 -1403.508666992 -1403.597778320 -1403.726684570 -1403.565551758 -1403.051513672 -1403.425048828 -1403.603881836 -1403.806762695 -1403.969360352 -1404.088867188 -1404.213134766 -1404.441528320 -1404.881958008 -1405.242187500 -1405.336059570 -1405.541137695 -1405.919677734 -1406.429687500 -1406.641601562 -1406.854003906 -1407.148559570 -1407.807861328 -1408.667480469 -1409.078125000 -1409.606811523 -1410.012329102 -1410.451171875 -1410.562133789 -1410.668701172 -1410.745727539 -1410.820556641 -1410.893432617 -1410.988525391 -1411.105224609 -1411.392456055 -1411.669677734 -1411.776611328 -1411.971679688 -1411.964355469 -1411.908203125 -1411.722412109 -1411.635131836 -1411.793579102 -1412.330078125 -1412.811279297 -1413.135498047 -1413.530029297 -1413.783569336 -1413.826416016 -1413.839965820 -1413.870849609 -1413.823486328 -1414.192871094 -1414.832153320 -1415.391723633 -1415.633178711 -1415.312377930 -1415.204223633 -1415.524536133 -1416.206542969 -1416.226928711 -1416.283081055 -1416.525512695 -1416.750000000 -1416.827636719 -1416.950805664 -1417.331909180 -1417.856811523 -1418.273315430 -1418.479980469 -1418.891235352 -1419.351562500 -1419.725585938 -1420.029052734 -1420.254638672 -1420.447387695 -1420.812744141 -1421.907348633 -1422.150756836 -1422.446533203 -1422.573852539 -1422.665283203 -1422.746582031 -1422.846923828 -1422.992065430 -1423.257812500 -1423.264770508 -1423.421264648 -1423.552490234 -1423.642456055
-1376.021850586 -1376.056274414 -1376.031250000 -1375.946899414 -1375.824829102 -1375.810058594 -1375.872192383 -1376.029663086 -1376.281982422 -1376.598754883 -1376.917358398 -1377.234497070 -1377.541015625 -1377.817016602 -1378.087402344 -1378.361938477 -1378.648071289 -1378.932006836 -1379.271850586 -1379.636840820 -1379.975708008 -1380.390747070 -1380.859497070 -1381.279663086 -1381.674194336 -1382.028686523 -1382.321655273 -1382.567016602 -1382.832275391 -1383.188598633 -1383.616333008 -1384.035034180 -1384.447875977 -1384.832641602 -1385.156250000 -1385.454833984 -1385.777221680 -1386.109497070 -1386.452270508 -1386.824707031 -1387.213745117 -1387.562133789 -1387.857421875 -1388.149536133 -1388.471801758 -1388.779907227 -1389.110229492 -1389.454956055 -1389.782104492 -1390.102539062 -1390.428833008 -1390.760742188 -1391.057983398 -1391.330566406 -1391.638305664 -1391.963989258 -1392.263671875 -1392.550048828 -1392.839721680 -1393.126586914 -1393.409667969 -1393.690795898 -1393.991821289 -1394.298095703 -1394.601196289 -1394.914062500 -1395.259643555 -1395.593261719 -1395.920898438 -1396.240356445 -1396.567382812 -1396.916748047 -1397.255737305 -1397.579101562 -1397.931518555 -1398.247192383 -1398.509643555 -1398.722900391 -1398.939208984 -1399.212524414 -1399.609008789 -1400.199340820 -1400.526000977 -1400.543457031 -1400.664794922 -1401.275390625 -1401.561523438 -1401.770385742 -1402.037353516 -1402.387084961 -1402.793945312 -1402.937744141 -1402.853271484 -1403.357177734 -1403.477294922 -1403.402587891 -1403.555175781 -1403.658081055 -1403.777099609 -1403.825683594 -1403.699829102 -1403.701293945 -1403.709594727 -1403.894897461 -1404.049804688 -1404.232788086 -1404.517578125 -1404.824829102 -1405.288940430 -1405.418945312 -1405.473632812 -1405.658813477 -1405.913696289 -1406.346923828 -1406.815673828 -1407.089599609 -1407.680541992 -1408.606079102 -1409.160888672 -1409.497924805 -1409.975830078 -1410.316894531 -1410.558959961 -1410.642578125 -1410.728271484 -1410.817749023 -1410.916503906 -1411.037353516 -1411.186035156 -1411.365722656 -1411.532958984 -1411.463745117 -1411.430664062 -1411.692260742 -1411.859863281 -1411.980102539 -1411.979003906 -1411.944580078 -1411.852539062 -1411.992187500 -1412.599121094 -1413.135620117 -1413.543579102 -1413.877075195 -1413.970825195 -1413.847900391 -1413.680053711 -1413.769165039 -1414.190307617 -1414.739990234 -1415.164062500 -1415.389038086 -1415.567382812 -1415.390991211 -1415.712768555 -1415.961303711 -1416.089843750 -1416.369506836 -1416.682861328 -1416.919677734 -1416.811157227 -1416.878784180 -1417.471557617 -1417.969482422 -1418.256103516 -1418.458618164 -1418.767944336 -1419.180541992 -1419.637084961 -1419.907592773 -1420.284057617 -1421.096557617 -1421.758056641 -1422.246459961 -1422.374145508 -1422.486816406 -1422.599487305 -1422.689208984 -1422.769287109 -1422.852172852 -1422.947631836 -1423.070800781 -1423.208251953 -1423.455444336 -1423.665283203 -1423.826293945
-1376.101806641 -1376.110961914 -1376.054443359 -1375.953369141 -1375.848510742 -1375.812622070 -1375.839355469 -1375.981323242 -1376.192871094 -1376.437011719 -1376.732788086 -1377.053833008 -1377.360351562 -1377.664428711 -1377.963378906 -1378.239990234 -1378.516357422 -1378.805053711 -1379.160400391 -1379.540893555 -1379.896484375 -1380.267822266 -1380.654663086 -1381.042602539 -1381.439453125 -1381.784912109 -1382.119140625 -1382.424560547 -1382.720581055 -1383.077636719 -1383.500000000 -1383.921875000 -1384.379394531 -1384.798461914 -1385.134887695 -1385.408813477 -1385.682250977 -1385.971069336 -1386.292846680 -1386.621459961 -1386.988525391 -1387.382568359 -1387.731689453 -1388.032836914 -1388.353027344 -1388.693725586 -1389.050415039 -1389.415283203 -1389.760009766 -1390.091186523 -1390.409423828 -1390.709838867 -1390.981323242 -1391.232543945 -1391.519897461 -1391.862548828 -1392.229492188 -1392.579345703 -1392.864501953 -1393.085937500 -1393.325073242 -1393.631713867 -1393.909545898 -1394.198852539 -1394.540893555 -1394.883789062 -1395.229614258 -1395.581787109 -1395.935424805 -1396.242065430 -1396.552978516 -1396.894897461 -1397.271484375 -1397.643920898 -1397.961791992 -1398.291015625 -1398.557739258 -1398.789306641 -1399.032226562 -1399.375488281 -1399.803588867 -1400.207275391 -1400.198364258 -1400.337646484 -1400.706787109 -1401.347778320 -1401.540649414 -1401.652221680 -1401.927246094 -1402.456787109 -1403.017211914 -1403.001464844 -1403.018554688 -1403.307250977 -1403.807373047 -1403.634887695 -1403.862304688 -1404.097167969 -1404.067871094 -1404.152832031 -1404.134399414 -1404.132690430 -1404.538452148 -1404.165283203 -1404.179809570 -1404.305297852 -1404.529663086 -1404.908569336 -1405.285400391 -1405.470336914 -1405.643920898 -1405.729125977 -1406.006347656 -1406.465576172 -1406.917480469 -1407.340332031 -1408.201171875 -1409.154052734 -1409.544921875 -1409.701416016 -1409.981933594 -1410.278198242 -1410.442504883 -1410.596313477 -1410.681030273 -1410.768432617 -1410.862426758 -1410.973510742 -1411.088500977 -1411.202880859 -1411.412109375 -1411.513916016 -1411.624145508 -1411.885498047 -1411.925415039 -1412.063720703 -1412.143432617 -1412.212158203 -1412.293334961 -1412.471801758 -1412.896850586 -1413.329833984 -1413.764892578 -1414.115112305 -1414.102050781 -1413.823974609 -1413.640747070 -1414.128051758 -1414.643554688 -1414.863891602 -1415.066406250 -1415.111450195 -1415.081054688 -1414.992797852 -1415.281005859 -1415.628906250 -1415.969116211 -1416.240112305 -1416.541870117 -1416.863525391 -1416.952758789 -1417.238525391 -1417.760742188 -1418.190795898 -1418.472656250 -1418.676879883 -1418.984252930 -1419.456665039 -1419.939331055 -1420.722167969 -1421.029296875 -1421.473632812 -1422.128540039 -1422.303588867 -1422.400390625 -1422.490966797 -1422.592407227 -1422.715698242 -1422.806030273 -1422.898925781 -1422.995971680 -1423.098999023 -1423.220703125 -1423.382812500 -1423.562133789 -1423.781738281
-1376.169067383 -1376.177124023 -1376.117431641 -1376.013549805 -1375.865478516 -1375.794311523 -1375.798828125 -1375.912475586 -1376.077026367 -1376.292236328 -1376.556030273 -1376.855346680 -1377.161621094 -1377.459472656 -1377.781494141 -1378.078002930 -1378.394165039 -1378.726928711 -1379.083862305 -1379.459228516 -1379.821044922 -1380.163696289 -1380.504150391 -1380.855468750 -1381.214111328 -1381.561645508 -1381.941040039 -1382.290649414 -1382.617675781 -1382.974731445 -1383.383422852 -1383.805786133 -1384.256958008 -1384.670043945 -1385.027465820 -1385.316162109 -1385.572387695 -1385.825561523 -1386.153442383 -1386.479614258 -1386.823486328 -1387.185668945 -1387.526245117 -1387.851806641 -1388.190307617 -1388.555297852 -1388.934570312 -1389.302368164 -1389.658203125 -1390.013793945 -1390.348510742 -1390.624877930 -1390.864990234 -1391.114257812 -1391.415893555 -1391.777709961 -1392.163818359 -1392.524291992 -1392.832641602 -1393.124267578 -1393.356201172 -1393.572265625 -1393.870361328 -1394.198364258 -1394.559936523 -1394.913940430 -1395.251953125 -1395.590332031 -1395.949218750 -1396.283935547 -1396.615356445 -1396.939819336 -1397.286254883 -1397.677368164 -1398.024169922 -1398.380126953 -1398.619628906 -1398.777832031 -1399.036010742 -1399.284057617 -1399.266723633 -1399.580932617 -1400.121948242 -1400.190917969 -1400.731445312 -1401.203613281 -1401.526855469 -1401.709106445 -1402.210449219 -1402.582763672 -1403.261840820 -1403.246093750 -1403.197021484 -1403.334228516 -1403.529174805 -1403.887695312 -1404.176757812 -1404.339843750 -1404.211303711 -1404.322998047 -1404.397338867 -1404.566040039 -1404.936523438 -1404.748901367 -1404.575927734 -1404.461059570 -1404.673706055 -1405.090332031 -1405.145141602 -1405.512329102 -1405.709228516 -1405.746704102 -1405.992797852 -1406.612304688 -1407.479003906 -1408.086669922 -1409.129028320 -1409.392089844 -1409.546630859 -1409.687255859 -1409.887695312 -1410.107543945 -1410.349121094 -1410.527099609 -1410.609130859 -1410.691772461 -1410.750000000 -1410.802124023 -1411.124877930 -1411.557617188 -1411.649414062 -1411.687622070 -1411.716430664 -1412.091552734 -1412.375488281 -1412.271362305 -1412.268432617 -1412.320556641 -1412.495605469 -1412.766967773 -1413.133789062 -1413.712646484 -1414.053955078 -1414.311401367 -1414.275268555 -1414.267456055 -1414.341796875 -1414.526245117 -1414.798950195 -1414.875000000 -1414.927246094 -1415.196411133 -1415.531127930 -1415.466918945 -1415.954467773 -1415.965209961 -1415.963012695 -1416.163574219 -1416.692382812 -1417.155273438 -1417.299316406 -1417.437744141 -1418.016235352 -1418.527221680 -1418.724487305 -1418.901733398 -1419.350219727 -1420.287963867 -1420.658569336 -1421.075317383 -1421.306030273 -1421.860717773 -1422.122436523 -1422.236816406 -1422.335571289 -1422.428466797 -1422.526245117 -1422.652465820 -1422.756835938 -1422.849487305 -1422.944824219 -1423.048339844 -1423.270141602 -1423.676391602 -1423.678955078 -1424.043334961
-1376.202758789 -1376.225219727 -1376.187255859 -1376.069213867 -1375.918334961 -1375.801879883 -1375.769165039 -1375.849121094 -1375.992797852 -1376.219848633 -1376.468505859 -1376.746948242 -1377.070800781 -1377.388305664 -1377.686523438 -1378.005126953 -1378.313476562 -1378.656982422 -1379.008666992 -1379.377929688 -1379.744750977 -1380.088745117 -1380.415527344 -1380.760986328 -1381.121948242 -1381.466064453 -1381.817871094 -1382.149291992 -1382.476562500 -1382.820556641 -1383.216552734 -1383.626708984 -1384.049194336 -1384.426391602 -1384.784667969 -1385.132812500 -1385.412475586 -1385.674316406 -1386.014892578 -1386.326782227 -1386.624267578 -1386.952636719 -1387.301025391 -1387.660156250 -1388.005371094 -1388.373535156 -1388.749877930 -1389.110229492 -1389.479736328 -1389.857910156 -1390.204223633 -1390.504394531 -1390.773437500 -1391.026611328 -1391.313110352 -1391.667358398 -1392.070068359 -1392.463745117 -1392.844970703 -1393.164428711 -1393.408203125 -1393.640991211 -1393.939331055 -1394.270996094 -1394.640869141 -1395.005859375 -1395.335815430 -1395.657592773 -1396.020263672 -1396.359741211 -1396.679199219 -1396.969482422 -1397.285400391 -1397.662231445 -1397.978271484 -1398.272460938 -1398.578491211 -1398.792358398 -1398.922485352 -1399.047119141 -1399.241577148 -1399.475952148 -1399.729614258 -1399.744018555 -1400.364868164 -1401.083496094 -1401.437500000 -1401.597167969 -1401.915161133 -1402.360595703 -1403.228393555 -1403.167846680 -1403.191650391 -1403.428466797 -1403.751953125 -1404.143676758 -1404.169311523 -1404.207763672 -1404.263305664 -1404.319702148 -1404.465454102 -1404.473754883 -1404.541503906 -1404.928344727 -1404.879760742 -1404.906494141 -1404.985229492 -1405.059448242 -1405.082519531 -1405.294555664 -1405.593994141 -1406.075317383 -1406.448608398 -1407.025024414 -1408.066528320 -1408.488647461 -1409.265625000 -1409.357910156 -1409.460327148 -1409.616333008 -1409.810913086 -1409.987304688 -1410.205810547 -1410.378906250 -1410.524414062 -1410.557739258 -1410.747924805 -1411.085327148 -1411.363525391 -1411.665283203 -1411.729003906 -1411.748168945 -1411.773315430 -1412.179443359 -1412.486206055 -1412.375732422 -1412.470336914 -1412.466186523 -1412.511840820 -1412.766235352 -1413.299804688 -1414.107543945 -1414.642089844 -1414.936645508 -1414.923583984 -1414.735107422 -1414.598754883 -1414.504516602 -1414.605346680 -1414.866577148 -1415.309936523 -1415.863037109 -1415.742675781 -1415.511108398 -1415.767211914 -1416.187866211 -1416.412597656 -1416.691772461 -1417.194946289 -1417.496337891 -1417.699951172 -1417.895263672 -1418.388427734 -1418.900146484 -1419.175903320 -1419.655273438 -1420.164062500 -1420.704467773 -1420.925415039 -1421.077880859 -1421.239257812 -1421.861572266 -1422.035766602 -1422.146972656 -1422.251098633 -1422.348388672 -1422.439819336 -1422.549316406 -1422.687133789 -1422.781372070 -1423.017944336 -1423.577514648 -1423.663940430 -1423.693481445 -1423.695556641 -1423.975952148
-1376.161865234 -1376.178344727 -1376.128417969 -1375.996093750 -1375.846435547 -1375.758544922 -1375.703125000 -1375.734741211 -1375.893432617 -1376.130371094 -1376.387939453 -1376.668457031 -1376.988647461 -1377.301513672 -1377.592041016 -1377.887451172 -1378.183227539 -1378.506103516 -1378.870483398 -1379.268676758 -1379.640502930 -1380.000000000 -1380.369628906 -1380.713623047 -1381.018310547 -1381.319580078 -1381.664062500 -1382.040771484 -1382.385742188 -1382.703369141 -1383.062011719 -1383.432128906 -1383.796508789 -1384.168823242 -1384.554809570 -1384.920532227 -1385.233398438 -1385.554687500 -1385.885375977 -1386.179321289 -1386.467651367 -1386.810913086 -1387.131958008 -1387.458129883 -1387.802734375 -1388.182861328 -1388.545532227 -1388.877685547 -1389.236450195 -1389.614379883 -1389.960327148 -1390.285522461 -1390.610473633 -1390.905273438 -1391.197875977 -1391.546508789 -1391.948120117 -1392.346679688 -1392.734619141 -1393.053710938 -1393.330566406 -1393.630859375 -1393.976318359 -1394.324462891 -1394.688110352 -1395.047485352 -1395.369750977 -1395.675781250 -1396.021484375 -1396.348388672 -1396.662475586 -1396.963867188 -1397.258544922 -1397.548095703 -1397.855834961 -1398.197875977 -1398.468750000 -1398.698974609 -1398.832031250 -1398.991210938 -1399.325439453 -1399.565917969 -1399.822753906 -1400.093994141 -1400.524780273 -1401.180908203 -1401.397949219 -1401.404541016 -1401.311523438 -1401.969238281 -1403.425170898 -1403.639282227 -1403.742675781 -1403.653198242 -1403.742187500 -1404.204101562 -1404.230590820 -1403.948364258 -1404.273803711 -1404.327514648 -1404.390136719 -1404.716186523 -1404.963378906 -1404.906860352 -1404.893066406 -1405.141601562 -1405.529907227 -1405.322753906 -1405.355224609 -1405.450561523 -1405.804321289 -1406.332153320 -1407.140991211 -1407.947265625 -1408.563476562 -1409.123046875 -1409.173828125 -1409.275756836 -1409.413940430 -1409.584960938 -1409.706909180 -1409.820800781 -1410.003784180 -1410.196899414 -1410.290161133 -1410.351684570 -1410.474853516 -1410.787109375 -1411.286987305 -1411.664794922 -1411.740844727 -1411.857177734 -1412.099487305 -1412.362792969 -1412.589233398 -1412.613403320 -1412.517089844 -1412.618408203 -1412.746215820 -1412.983032227 -1413.490966797 -1414.042358398 -1414.513916016 -1414.886474609 -1414.748168945 -1414.612182617 -1414.582275391 -1414.554565430 -1414.828613281 -1415.284667969 -1415.647216797 -1416.031494141 -1415.770874023 -1415.554565430 -1415.917724609 -1416.791381836 -1417.133544922 -1417.359008789 -1417.632568359 -1417.784667969 -1418.033569336 -1418.358154297 -1418.832763672 -1419.375488281 -1419.698120117 -1420.156616211 -1420.505981445 -1420.707519531 -1420.824707031 -1420.994018555 -1421.519287109 -1421.794067383 -1421.932983398 -1422.052490234 -1422.163696289 -1422.266357422 -1422.359375000 -1422.463623047 -1422.656372070 -1422.984375000 -1423.298217773 -1423.713623047 -1423.802368164 -1423.719604492 -1423.743408203 -1423.990844727
-1376.129882812 -1376.091796875 -1376.024169922 -1375.905761719 -1375.783935547 -1375.672729492 -1375.603149414 -1375.616455078 -1375.778198242 -1376.039306641 -1376.287841797 -1376.544433594 -1376.844360352 -1377.151611328 -1377.457641602 -1377.747314453 -1378.032226562 -1378.329345703 -1378.676391602 -1379.070068359 -1379.435913086 -1379.810302734 -1380.155761719 -1380.466308594 -1380.872070312 -1381.203735352 -1381.533569336 -1381.882324219 -1382.258300781 -1382.596557617 -1382.939575195 -1383.285522461 -1383.644531250 -1383.968505859 -1384.330078125 -1384.682739258 -1385.040405273 -1385.422729492 -1385.817260742 -1386.133056641 -1386.403930664 -1386.719848633 -1386.993774414 -1387.293334961 -1387.619262695 -1387.957641602 -1388.290527344 -1388.634643555 -1389.008056641 -1389.382568359 -1389.727661133 -1390.062255859 -1390.394897461 -1390.708374023 -1391.021484375 -1391.382812500 -1391.777709961 -1392.170898438 -1392.556518555 -1392.885009766 -1393.192749023 -1393.530517578 -1393.901000977 -1394.279663086 -1394.653686523 -1395.006713867 -1395.332275391 -1395.648803711 -1395.980590820 -1396.318237305 -1396.618530273 -1396.927490234 -1397.213500977 -1397.480468750 -1397.769531250 -1398.067016602 -1398.334594727 -1398.587524414 -1398.808837891 -1399.051269531 -1399.379638672 -1399.679199219 -1400.029052734 -1400.398071289 -1400.599487305 -1401.118408203 -1401.349609375 -1401.436157227 -1401.539184570 -1402.089721680 -1403.219848633 -1403.645629883 -1403.888916016 -1403.788574219 -1403.798217773 -1403.977416992 -1404.206787109 -1404.339111328 -1404.351684570 -1404.330688477 -1404.408935547 -1404.702514648 -1404.723022461 -1404.596557617 -1404.701049805 -1404.966796875 -1405.555297852 -1405.710327148 -1405.461914062 -1405.848876953 -1406.546752930 -1406.858886719 -1407.292114258 -1407.993530273 -1408.528076172 -1409.162109375 -1409.082031250 -1409.190307617 -1409.346435547 -1409.522949219 -1409.596313477 -1409.625366211 -1409.724731445 -1409.958618164 -1410.136962891 -1410.329101562 -1410.431152344 -1410.658325195 -1410.965454102 -1411.195068359 -1411.525756836 -1411.916748047 -1412.246093750 -1412.517456055 -1412.728271484 -1412.774291992 -1412.627197266 -1412.714599609 -1412.869506836 -1413.218261719 -1413.845458984 -1414.392211914 -1414.812133789 -1415.150146484 -1415.124511719 -1414.900756836 -1414.819824219 -1414.854492188 -1414.936523438 -1415.238159180 -1415.769653320 -1415.858276367 -1415.853759766 -1416.135742188 -1416.491943359 -1416.930908203 -1417.354003906 -1417.661376953 -1417.946899414 -1418.259277344 -1418.541625977 -1418.787841797 -1419.226806641 -1419.788208008 -1420.061645508 -1420.271606445 -1420.447387695 -1420.595092773 -1420.717773438 -1420.880004883 -1421.474121094 -1421.681762695 -1421.822509766 -1421.952026367 -1422.071777344 -1422.181518555 -1422.332763672 -1422.611816406 -1422.755249023 -1422.989379883 -1423.154907227 -1423.356445312 -1423.635375977 -1423.759521484 -1423.788574219 -1423.917358398
-1376.060546875 -1376.041381836 -1375.950195312 -1375.798339844 -1375.682861328 -1375.565551758 -1375.493164062 -1375.537597656 -1375.671020508 -1375.872924805 -1376.093994141 -1376.344604492 -1376.665893555 -1376.942871094 -1377.255249023 -1377.560424805 -1377.851074219 -1378.156982422 -1378.443725586 -1378.760864258 -1379.107177734 -1379.487182617 -1379.856445312 -1380.179321289 -1380.510864258 -1380.853271484 -1381.225708008 -1381.612060547 -1382.007568359 -1382.407714844 -1382.778930664 -1383.114990234 -1383.492797852 -1383.818237305 -1384.161499023 -1384.504638672 -1384.852661133 -1385.231079102 -1385.636962891 -1386.028564453 -1386.359008789 -1386.658569336 -1386.912353516 -1387.172973633 -1387.448486328 -1387.759399414 -1388.090454102 -1388.430541992 -1388.787963867 -1389.151733398 -1389.503295898 -1389.835815430 -1390.153930664 -1390.460083008 -1390.775024414 -1391.133789062 -1391.532836914 -1391.960205078 -1392.386840820 -1392.764404297 -1393.124511719 -1393.493164062 -1393.859619141 -1394.220458984 -1394.576904297 -1394.941528320 -1395.280517578 -1395.604980469 -1395.926269531 -1396.237915039 -1396.539184570 -1396.838867188 -1397.136108398 -1397.433715820 -1397.731323242 -1398.019409180 -1398.294067383 -1398.558105469 -1398.802734375 -1399.019775391 -1399.225463867 -1399.568603516 -1400.104858398 -1400.436035156 -1400.652954102 -1401.208862305 -1401.452270508 -1401.637573242 -1401.836669922 -1402.375000000 -1403.549926758 -1403.813964844 -1403.877685547 -1403.882934570 -1403.950195312 -1403.984252930 -1404.119262695 -1404.576782227 -1404.485839844 -1404.555053711 -1404.485351562 -1404.390625000 -1404.668579102 -1405.135498047 -1405.071166992 -1405.685180664 -1405.236938477 -1405.702880859 -1406.326538086 -1406.436645508 -1406.644409180 -1407.049316406 -1407.712280273 -1408.174194336 -1408.894775391 -1409.108764648 -1409.122802734 -1409.140869141 -1409.301269531 -1409.360473633 -1409.374023438 -1409.462402344 -1409.558227539 -1409.789916992 -1410.125244141 -1410.374267578 -1410.562377930 -1410.795654297 -1410.923583984 -1411.004272461 -1411.150756836 -1411.499145508 -1412.138671875 -1412.660156250 -1412.808837891 -1412.937377930 -1412.756958008 -1412.523071289 -1412.783325195 -1413.382080078 -1413.902465820 -1414.241699219 -1414.661743164 -1414.957641602 -1415.060180664 -1414.983886719 -1414.898925781 -1414.872436523 -1414.843872070 -1415.124511719 -1415.960937500 -1416.356201172 -1416.389404297 -1416.468627930 -1416.684936523 -1416.993164062 -1417.408203125 -1417.705200195 -1417.952758789 -1418.232666016 -1418.550292969 -1418.884399414 -1419.392822266 -1419.717651367 -1419.845703125 -1419.883544922 -1420.409179688 -1420.599121094 -1420.766357422 -1421.308471680 -1421.582397461 -1421.733154297 -1421.864013672 -1421.985107422 -1422.157348633 -1422.470092773 -1422.602905273 -1422.743286133 -1422.862304688 -1423.046264648 -1423.219970703 -1423.447021484 -1423.533081055 -1423.627929688 -1423.762451172 -1423.974975586
-1375.968017578 -1375.947021484 -1375.869262695 -1375.754028320 -1375.649291992 -1375.539306641 -1375.455200195 -1375.422119141 -1375.487670898 -1375.677124023 -1375.898193359 -1376.125610352 -1376.441894531 -1376.740600586 -1377.049072266 -1377.356689453 -1377.653686523 -1377.943603516 -1378.214355469 -1378.482910156 -1378.787841797 -1379.101806641 -1379.420166016 -1379.758056641 -1380.116943359 -1380.468994141 -1380.851684570 -1381.261596680 -1381.676879883 -1382.110961914 -1382.521362305 -1382.873291016 -1383.240600586 -1383.609252930 -1383.963134766 -1384.304565430 -1384.645996094 -1385.023071289 -1385.424438477 -1385.789550781 -1386.106933594 -1386.438110352 -1386.689941406 -1386.949096680 -1387.232299805 -1387.554565430 -1387.887939453 -1388.226806641 -1388.589233398 -1388.954467773 -1389.307128906 -1389.640869141 -1389.955444336 -1390.256347656 -1390.564453125 -1390.920166016 -1391.328491211 -1391.765258789 -1392.207763672 -1392.631835938 -1393.031738281 -1393.414672852 -1393.783447266 -1394.150634766 -1394.513549805 -1394.863281250 -1395.202514648 -1395.542480469 -1395.871704102 -1396.184326172 -1396.484985352 -1396.773559570 -1397.064941406 -1397.369140625 -1397.676147461 -1397.980468750 -1398.273071289 -1398.551147461 -1398.813842773 -1399.060302734 -1399.295288086 -1399.701904297 -1400.284057617 -1400.510620117 -1400.611938477 -1400.842163086 -1401.446777344 -1401.783813477 -1402.019409180 -1402.349731445 -1403.106201172 -1403.716796875 -1403.900268555 -1403.996826172 -1403.834838867 -1404.066162109 -1404.399902344 -1404.661132812 -1404.612426758 -1404.614746094 -1404.564086914 -1404.833251953 -1404.851440430 -1404.673217773 -1404.767700195 -1405.447021484 -1406.247680664 -1406.349853516 -1406.512451172 -1406.638061523 -1406.802001953 -1407.049316406 -1407.772338867 -1408.225585938 -1408.791992188 -1408.954345703 -1409.047973633 -1409.045166016 -1409.202758789 -1409.266479492 -1409.339477539 -1409.421630859 -1409.523803711 -1409.736694336 -1410.015991211 -1410.265869141 -1410.597778320 -1410.814453125 -1410.906738281 -1410.958984375 -1411.068359375 -1411.361083984 -1411.675415039 -1411.879028320 -1412.392700195 -1412.898559570 -1412.642700195 -1412.310913086 -1412.595581055 -1413.121582031 -1413.214355469 -1413.638427734 -1414.290283203 -1414.460327148 -1414.571166992 -1414.539672852 -1414.555664062 -1414.690795898 -1414.968383789 -1415.728637695 -1416.322265625 -1416.530517578 -1416.572998047 -1416.613403320 -1416.784179688 -1417.020263672 -1417.311889648 -1417.674560547 -1417.931884766 -1418.166503906 -1418.358520508 -1418.506835938 -1419.395141602 -1419.690429688 -1419.690551758 -1419.634033203 -1419.804809570 -1420.541625977 -1420.809692383 -1421.471557617 -1421.683105469 -1421.811889648 -1421.996582031 -1422.335205078 -1422.483886719 -1422.633666992 -1422.747924805 -1422.855102539 -1422.953979492 -1423.091064453 -1423.311157227 -1423.495971680 -1423.562622070 -1423.638061523 -1423.744750977 -1423.867431641
-1375.808471680 -1375.787475586 -1375.742675781 -1375.688232422 -1375.602661133 -1375.518554688 -1375.455566406 -1375.411376953 -1375.372558594 -1375.391723633 -1375.628051758 -1375.871337891 -1376.192993164 -1376.517578125 -1376.854003906 -1377.169799805 -1377.467529297 -1377.761352539 -1378.013427734 -1378.233520508 -1378.481811523 -1378.712158203 -1378.986083984 -1379.326171875 -1379.716918945 -1380.118652344 -1380.542480469 -1380.981567383 -1381.393310547 -1381.800537109 -1382.198852539 -1382.561889648 -1382.952636719 -1383.354858398 -1383.717163086 -1384.088012695 -1384.457763672 -1384.824584961 -1385.183105469 -1385.511596680 -1385.820556641 -1386.167114258 -1386.448242188 -1386.684204102 -1386.948120117 -1387.279418945 -1387.633911133 -1388.000976562 -1388.382324219 -1388.759765625 -1389.117431641 -1389.453369141 -1389.768798828 -1390.068847656 -1390.381225586 -1390.752685547 -1391.174926758 -1391.605468750 -1392.037475586 -1392.469970703 -1392.880371094 -1393.262939453 -1393.636230469 -1394.018432617 -1394.389892578 -1394.741699219 -1395.096313477 -1395.462158203 -1395.806762695 -1396.128662109 -1396.430908203 -1396.711059570 -1396.998779297 -1397.308715820 -1397.634155273 -1397.959716797 -1398.266113281 -1398.550903320 -1398.785034180 -1399.000366211 -1399.396972656 -1399.899780273 -1400.303955078 -1400.543701172 -1400.729248047 -1400.980102539 -1401.565673828 -1401.937744141 -1402.221313477 -1402.597290039 -1403.131958008 -1403.642089844 -1403.970825195 -1404.334228516 -1404.213500977 -1404.125488281 -1404.398193359 -1404.434448242 -1404.371826172 -1404.466064453 -1404.787841797 -1405.266845703 -1405.456054688 -1405.846435547 -1406.188110352 -1406.286621094 -1406.435180664 -1406.469604492 -1406.514770508 -1406.598999023 -1406.862670898 -1407.361572266 -1407.764892578 -1408.207763672 -1408.713623047 -1408.859497070 -1409.012207031 -1409.115112305 -1409.167236328 -1409.284545898 -1409.351806641 -1409.402954102 -1409.484497070 -1409.606445312 -1409.883178711 -1410.348876953 -1410.724975586 -1410.836303711 -1410.903198242 -1411.033203125 -1411.311767578 -1411.550537109 -1411.605224609 -1411.646362305 -1411.747558594 -1412.019653320 -1412.517822266 -1412.524047852 -1412.477783203 -1412.573608398 -1412.583862305 -1413.378295898 -1414.054809570 -1414.181152344 -1414.274536133 -1414.074340820 -1413.586059570 -1413.920043945 -1414.999267578 -1415.959106445 -1416.427978516 -1416.611450195 -1416.660888672 -1416.697143555 -1416.864379883 -1417.077758789 -1417.331176758 -1417.685668945 -1417.862792969 -1417.857299805 -1418.148315430 -1418.991455078 -1419.517333984 -1419.653198242 -1419.680786133 -1419.563842773 -1419.028442383 -1419.542968750 -1420.328735352 -1421.546752930 -1421.873413086 -1422.195190430 -1422.356079102 -1422.514160156 -1422.635253906 -1422.747924805 -1422.858398438 -1422.964355469 -1423.061157227 -1423.216430664 -1423.493164062 -1423.566528320 -1423.638061523 -1423.707153320 -1423.787353516 -1423.917358398
-1375.719848633 -1375.712158203 -1375.689941406 -1375.658935547 -1375.605102539 -1375.552734375 -1375.501953125 -1375.440307617 -1375.356445312 -1375.323608398 -1375.378662109 -1375.599365234 -1375.931762695 -1376.314453125 -1376.674072266 -1376.998901367 -1377.314331055 -1377.536621094 -1377.769531250 -1377.973388672 -1378.168090820 -1378.374389648 -1378.628173828 -1378.950073242 -1379.330932617 -1379.749023438 -1380.223022461 -1380.676757812 -1381.065185547 -1381.486694336 -1381.880981445 -1382.270019531 -1382.671508789 -1383.070434570 -1383.435058594 -1383.807128906 -1384.193969727 -1384.540405273 -1384.818359375 -1385.124023438 -1385.497436523 -1385.847167969 -1386.143798828 -1386.412719727 -1386.695190430 -1387.051635742 -1387.430664062 -1387.820068359 -1388.203857422 -1388.581665039 -1388.937011719 -1389.268066406 -1389.581176758 -1389.886596680 -1390.210693359 -1390.596801758 -1391.030639648 -1391.462646484 -1391.892456055 -1392.322875977 -1392.726440430 -1393.108642578 -1393.495239258 -1393.892211914 -1394.274902344 -1394.632690430 -1394.994384766 -1395.369384766 -1395.714965820 -1396.041381836 -1396.360961914 -1396.650390625 -1396.933105469 -1397.233398438 -1397.563964844 -1397.902099609 -1398.236938477 -1398.553466797 -1398.833129883 -1399.033935547 -1399.272705078 -1399.829467773 -1400.248291016 -1400.460083008 -1400.672973633 -1400.873413086 -1401.260742188 -1401.841430664 -1402.170043945 -1402.621459961 -1403.043579102 -1403.513061523 -1403.951660156 -1404.118896484 -1403.977905273 -1404.287841797 -1404.271484375 -1404.374023438 -1404.434814453 -1404.530517578 -1404.738281250 -1405.157714844 -1405.116577148 -1405.350219727 -1405.851806641 -1405.686767578 -1406.474731445 -1406.511596680 -1406.642456055 -1406.798217773 -1406.935424805 -1407.516479492 -1407.819946289 -1408.066650391 -1408.508178711 -1408.954223633 -1409.095092773 -1409.134033203 -1409.059204102 -1409.228271484 -1409.430908203 -1409.535888672 -1409.576538086 -1409.636718750 -1409.883422852 -1410.258422852 -1410.622436523 -1410.907104492 -1410.983398438 -1411.023071289 -1411.123901367 -1411.384887695 -1411.625366211 -1411.707031250 -1411.764038086 -1411.767456055 -1411.822387695 -1411.836669922 -1411.957763672 -1412.285644531 -1412.843872070 -1413.431274414 -1413.749023438 -1413.866333008 -1414.012695312 -1414.308471680 -1414.283447266 -1414.042724609 -1414.545532227 -1415.438110352 -1416.239990234 -1416.585449219 -1416.709716797 -1416.789794922 -1416.961425781 -1417.146484375 -1417.295532227 -1417.419921875 -1417.712646484 -1417.885253906 -1418.256958008 -1419.226440430 -1419.553955078 -1419.627807617 -1419.646728516 -1419.679565430 -1419.724121094 -1419.888427734 -1420.519897461 -1421.142578125 -1421.463378906 -1422.031372070 -1422.264526367 -1422.616699219 -1422.749145508 -1422.858520508 -1422.967407227 -1423.072753906 -1423.171264648 -1423.306640625 -1423.524658203 -1423.648925781 -1423.722412109 -1423.794189453 -1423.878173828 -1424.009399414
-1375.635986328 -1375.667236328 -1375.668212891 -1375.652587891 -1375.619018555 -1375.587890625 -1375.564697266 -1375.521972656 -1375.435913086 -1375.379394531 -1375.380004883 -1375.522583008 -1375.791381836 -1376.111572266 -1376.487182617 -1376.805541992 -1377.112548828 -1377.349609375 -1377.550903320 -1377.712768555 -1377.857788086 -1378.014404297 -1378.216674805 -1378.487060547 -1378.868041992 -1379.351318359 -1379.873413086 -1380.326049805 -1380.738403320 -1381.139282227 -1381.520141602 -1381.895751953 -1382.306152344 -1382.734252930 -1383.134033203 -1383.494018555 -1383.837524414 -1384.172363281 -1384.503417969 -1384.875976562 -1385.233886719 -1385.492187500 -1385.769042969 -1386.116699219 -1386.455810547 -1386.821044922 -1387.210205078 -1387.623168945 -1388.028686523 -1388.405273438 -1388.755493164 -1389.085449219 -1389.404907227 -1389.730957031 -1390.087890625 -1390.497314453 -1390.937744141 -1391.366821289 -1391.792358398 -1392.220581055 -1392.621582031 -1393.003417969 -1393.392211914 -1393.783081055 -1394.161010742 -1394.516113281 -1394.880737305 -1395.265258789 -1395.630004883 -1395.968750000 -1396.295776367 -1396.610717773 -1396.931030273 -1397.240478516 -1397.565063477 -1397.874145508 -1398.207519531 -1398.530273438 -1398.829223633 -1399.062622070 -1399.311279297 -1399.760986328 -1400.063476562 -1400.395141602 -1400.744384766 -1401.013305664 -1401.367431641 -1401.804443359 -1402.154907227 -1402.294311523 -1402.187988281 -1403.220947266 -1403.864013672 -1403.939086914 -1403.734863281 -1404.009887695 -1404.213012695 -1404.607910156 -1404.573608398 -1404.621826172 -1404.690673828 -1404.864135742 -1404.931518555 -1405.440063477 -1405.736938477 -1405.593872070 -1405.501464844 -1405.921264648 -1406.608886719 -1406.791503906 -1407.172729492 -1407.551025391 -1407.799682617 -1408.170288086 -1408.600219727 -1409.098876953 -1409.268432617 -1409.360351562 -1409.297851562 -1409.188110352 -1409.298706055 -1409.469726562 -1409.681884766 -1409.811279297 -1409.951293945 -1410.239013672 -1410.676879883 -1410.938964844 -1410.961303711 -1410.938476562 -1411.011718750 -1411.383666992 -1411.720825195 -1411.771362305 -1411.805419922 -1411.887695312 -1412.118774414 -1412.221557617 -1412.496704102 -1412.740722656 -1413.092041016 -1413.556152344 -1413.797241211 -1414.070556641 -1414.266723633 -1414.466430664 -1414.427734375 -1414.116699219 -1414.551147461 -1415.305175781 -1415.672607422 -1415.960083008 -1416.559448242 -1416.855834961 -1416.998413086 -1417.135986328 -1417.285522461 -1417.485961914 -1417.819580078 -1418.188354492 -1418.970825195 -1419.420166016 -1419.550415039 -1419.617431641 -1419.644165039 -1419.658569336 -1419.543701172 -1419.487670898 -1420.387695312 -1420.723510742 -1421.572021484 -1421.584716797 -1421.806518555 -1422.341308594 -1422.561889648 -1422.951904297 -1423.075317383 -1423.180786133 -1423.313720703 -1423.520751953 -1423.602172852 -1423.718994141 -1423.810668945 -1423.886840820 -1423.981811523 -1424.138549805
-1375.641967773 -1375.647338867 -1375.651977539 -1375.672729492 -1375.666870117 -1375.667236328 -1375.662231445 -1375.638427734 -1375.586059570 -1375.557373047 -1375.572631836 -1375.668457031 -1375.850585938 -1376.135620117 -1376.334716797 -1376.535278320 -1376.786376953 -1377.113403320 -1377.317016602 -1377.451049805 -1377.574340820 -1377.726074219 -1377.901123047 -1378.139282227 -1378.479248047 -1378.945922852 -1379.475830078 -1379.928222656 -1380.353637695 -1380.774536133 -1381.105224609 -1381.486938477 -1381.911743164 -1382.356323242 -1382.755371094 -1383.099365234 -1383.387207031 -1383.663696289 -1383.965576172 -1384.329711914 -1384.742187500 -1385.172241211 -1385.570800781 -1385.942993164 -1386.270385742 -1386.626342773 -1387.039672852 -1387.478881836 -1387.868774414 -1388.227050781 -1388.573486328 -1388.889526367 -1389.213378906 -1389.562744141 -1389.962036133 -1390.405517578 -1390.858032227 -1391.290283203 -1391.701293945 -1392.102783203 -1392.496093750 -1392.886718750 -1393.278198242 -1393.663940430 -1394.049072266 -1394.404418945 -1394.751708984 -1395.118041992 -1395.509277344 -1395.891235352 -1396.255493164 -1396.608520508 -1396.977905273 -1397.329345703 -1397.678588867 -1398.005737305 -1398.287353516 -1398.524169922 -1398.788330078 -1399.051269531 -1399.351684570 -1399.749877930 -1400.227783203 -1400.483520508 -1400.602905273 -1400.955200195 -1401.276733398 -1401.650024414 -1402.459228516 -1402.650878906 -1402.873291016 -1403.390014648 -1403.690185547 -1404.177490234 -1404.173217773 -1404.499023438 -1404.494018555 -1404.875732422 -1404.954956055 -1404.805175781 -1404.683959961 -1404.572509766 -1404.574096680 -1405.169921875 -1405.500244141 -1405.411132812 -1405.134033203 -1405.467773438 -1405.880371094 -1406.244995117 -1407.152587891 -1407.433593750 -1407.905395508 -1408.240722656 -1408.480957031 -1408.929443359 -1409.386840820 -1409.459594727 -1409.386718750 -1409.244628906 -1409.322143555 -1409.404907227 -1409.518310547 -1409.752319336 -1410.118286133 -1410.382446289 -1410.498901367 -1410.698974609 -1410.961181641 -1411.043457031 -1411.168823242 -1411.283203125 -1411.553222656 -1411.843627930 -1412.162109375 -1412.435546875 -1412.315307617 -1412.165527344 -1412.534179688 -1413.544311523 -1414.165771484 -1414.025390625 -1414.011352539 -1414.192138672 -1414.314575195 -1414.429565430 -1414.599487305 -1414.824584961 -1415.223632812 -1415.523559570 -1415.671752930 -1415.803588867 -1415.971313477 -1416.270751953 -1416.888183594 -1417.277832031 -1417.438720703 -1417.593872070 -1417.808593750 -1418.308471680 -1419.184082031 -1419.472534180 -1419.551391602 -1419.617553711 -1419.668701172 -1419.697265625 -1419.627197266 -1419.987670898 -1420.366333008 -1420.897827148 -1421.761840820 -1421.921752930 -1421.967651367 -1421.906616211 -1422.117675781 -1422.611083984 -1422.806884766 -1423.175048828 -1423.301025391 -1423.487304688 -1423.571655273 -1423.670410156 -1423.779418945 -1423.842163086 -1423.917846680 -1424.052856445
-1375.678955078 -1375.669921875 -1375.689453125 -1375.717407227 -1375.720336914 -1375.734619141 -1375.747070312 -1375.762329102 -1375.762207031 -1375.734375000 -1375.776000977 -1375.924194336 -1376.052001953 -1376.201538086 -1376.329589844 -1376.416015625 -1376.589721680 -1376.860961914 -1377.095336914 -1377.228393555 -1377.256225586 -1377.366210938 -1377.519042969 -1377.733398438 -1378.042724609 -1378.456054688 -1378.928100586 -1379.370605469 -1379.775268555 -1380.171020508 -1380.535766602 -1380.928222656 -1381.401855469 -1381.907836914 -1382.355468750 -1382.719604492 -1382.978881836 -1383.237670898 -1383.525512695 -1383.908935547 -1384.375244141 -1384.872802734 -1385.346801758 -1385.776245117 -1386.146484375 -1386.483154297 -1386.865234375 -1387.271606445 -1387.672729492 -1388.090576172 -1388.429199219 -1388.728881836 -1389.086425781 -1389.475830078 -1389.864379883 -1390.302978516 -1390.763183594 -1391.200073242 -1391.612060547 -1391.997070312 -1392.380981445 -1392.777587891 -1393.168090820 -1393.557373047 -1393.926879883 -1394.264038086 -1394.603515625 -1394.972412109 -1395.380371094 -1395.790771484 -1396.202758789 -1396.613037109 -1397.036865234 -1397.331054688 -1397.433227539 -1397.796752930 -1398.335449219 -1398.685546875 -1398.920654297 -1399.097045898 -1399.374877930 -1399.753295898 -1400.257324219 -1400.595947266 -1400.914306641 -1401.260498047 -1401.380859375 -1401.797485352 -1402.543945312 -1402.829833984 -1403.237792969 -1404.008056641 -1404.197265625 -1404.266967773 -1404.562255859 -1404.477050781 -1404.826049805 -1404.882690430 -1404.616455078 -1404.800781250 -1404.987792969 -1405.276977539 -1405.033935547 -1405.553466797 -1405.640625000 -1405.729370117 -1405.668090820 -1405.488403320 -1405.587890625 -1405.975585938 -1406.408691406 -1407.013061523 -1407.915527344 -1408.222412109 -1408.803100586 -1409.336547852 -1409.482788086 -1409.579223633 -1409.633789062 -1409.538085938 -1409.386108398 -1409.463012695 -1409.553344727 -1409.698486328 -1409.925170898 -1410.218994141 -1410.539550781 -1410.799804688 -1411.032226562 -1411.088745117 -1411.139038086 -1411.269531250 -1411.729248047 -1412.217163086 -1412.394775391 -1412.508056641 -1412.462402344 -1412.387084961 -1412.686889648 -1413.630859375 -1414.290893555 -1414.376953125 -1414.421020508 -1414.334228516 -1414.314941406 -1414.437255859 -1414.636840820 -1414.932983398 -1415.357910156 -1415.618164062 -1415.729614258 -1415.791503906 -1415.900878906 -1416.199462891 -1416.476074219 -1416.798828125 -1417.407470703 -1417.737670898 -1418.097534180 -1418.960815430 -1419.375244141 -1419.483886719 -1419.557861328 -1419.624633789 -1419.621826172 -1419.586425781 -1419.910034180 -1419.911987305 -1419.641723633 -1420.672119141 -1421.173950195 -1421.965820312 -1422.125732422 -1422.196655273 -1422.246826172 -1422.288085938 -1422.673095703 -1422.890380859 -1423.151245117 -1423.458251953 -1423.537475586 -1423.623657227 -1423.722900391 -1423.795043945 -1423.854370117 -1424.011230469
-1375.743041992 -1375.755981445 -1375.759399414 -1375.765991211 -1375.777709961 -1375.799438477 -1375.822998047 -1375.850585938 -1375.876586914 -1375.901000977 -1375.959960938 -1376.072387695 -1376.196533203 -1376.338745117 -1376.442871094 -1376.493164062 -1376.556640625 -1376.682739258 -1376.744628906 -1376.820800781 -1376.853759766 -1377.018798828 -1377.197387695 -1377.351684570 -1377.640136719 -1377.987548828 -1378.442382812 -1378.910400391 -1379.314697266 -1379.688476562 -1380.045532227 -1380.431640625 -1380.893798828 -1381.405029297 -1381.903442383 -1382.338623047 -1382.644775391 -1382.911621094 -1383.179565430 -1383.639526367 -1384.147583008 -1384.676757812 -1385.159912109 -1385.599121094 -1385.997436523 -1386.350708008 -1386.721557617 -1387.131103516 -1387.544921875 -1387.920532227 -1388.248291016 -1388.583007812 -1388.960937500 -1389.352539062 -1389.721191406 -1390.145874023 -1390.621582031 -1391.083862305 -1391.501098633 -1391.879150391 -1392.270996094 -1392.670776367 -1393.035766602 -1393.410278320 -1393.795654297 -1394.155639648 -1394.470947266 -1394.843627930 -1395.302246094 -1395.732177734 -1396.162841797 -1396.607299805 -1397.058593750 -1397.534423828 -1398.060302734 -1398.277343750 -1398.476928711 -1398.705078125 -1398.967407227 -1399.262939453 -1399.485351562 -1399.841308594 -1400.173583984 -1400.507202148 -1400.945312500 -1401.313720703 -1401.608642578 -1402.170898438 -1402.299072266 -1402.761962891 -1403.605468750 -1404.184204102 -1404.413085938 -1404.492919922 -1404.452880859 -1404.423706055 -1405.011474609 -1405.046264648 -1404.933837891 -1404.909057617 -1404.856445312 -1405.207397461 -1405.245483398 -1405.776123047 -1406.488159180 -1406.326171875 -1405.897827148 -1405.817382812 -1405.904663086 -1406.148437500 -1406.166870117 -1406.479003906 -1407.095214844 -1407.950805664 -1408.952758789 -1409.475341797 -1409.573852539 -1409.666625977 -1409.718627930 -1409.610229492 -1409.436279297 -1409.509155273 -1409.594848633 -1409.732666016 -1409.910888672 -1410.056640625 -1410.253295898 -1410.634155273 -1410.989013672 -1411.058105469 -1411.174316406 -1411.311035156 -1411.503295898 -1411.968872070 -1412.440673828 -1412.535156250 -1412.499389648 -1412.517456055 -1412.633178711 -1412.999267578 -1413.797119141 -1414.342895508 -1414.446289062 -1414.505981445 -1414.523315430 -1414.537109375 -1414.713134766 -1414.935913086 -1415.153442383 -1415.570190430 -1415.824340820 -1415.920654297 -1416.009521484 -1416.155151367 -1416.464721680 -1416.802978516 -1417.139038086 -1417.436767578 -1418.135986328 -1419.131469727 -1419.424072266 -1419.493286133 -1419.567138672 -1419.654907227 -1419.696166992 -1419.601318359 -1419.921142578 -1419.943725586 -1420.278808594 -1420.795166016 -1421.177490234 -1422.042480469 -1422.215454102 -1422.327636719 -1422.491333008 -1422.590087891 -1422.702026367 -1422.661132812 -1422.894897461 -1423.162597656 -1423.297851562 -1423.583251953 -1423.671386719 -1423.812866211 -1424.025024414 -1424.376220703
-1375.826538086 -1375.795288086 -1375.789184570 -1375.791015625 -1375.808349609 -1375.836914062 -1375.868530273 -1375.904052734 -1375.937255859 -1375.968383789 -1376.024780273 -1376.118896484 -1376.217041016 -1376.326782227 -1376.408813477 -1376.474121094 -1376.523803711 -1376.526977539 -1376.486206055 -1376.494262695 -1376.603271484 -1376.733398438 -1376.813964844 -1377.052246094 -1377.288085938 -1377.521850586 -1377.835449219 -1378.239868164 -1378.681762695 -1379.104858398 -1379.505737305 -1379.896972656 -1380.316162109 -1380.801879883 -1381.283447266 -1381.617309570 -1381.902587891 -1382.467895508 -1382.979492188 -1383.422973633 -1383.950439453 -1384.481689453 -1384.970214844 -1385.418334961 -1385.831420898 -1386.243652344 -1386.678100586 -1387.109985352 -1387.451782227 -1387.741699219 -1388.081542969 -1388.436401367 -1388.793579102 -1389.203979492 -1389.630493164 -1390.055664062 -1390.524902344 -1390.976684570 -1391.379150391 -1391.766845703 -1392.184082031 -1392.605712891 -1392.981201172 -1393.350952148 -1393.720092773 -1394.074462891 -1394.423828125 -1394.815673828 -1395.235717773 -1395.675781250 -1396.127441406 -1396.601562500 -1397.077758789 -1397.425903320 -1397.715942383 -1398.443237305 -1399.389770508 -1399.589111328 -1399.225830078 -1399.368408203 -1399.604125977 -1399.909179688 -1400.230590820 -1400.568969727 -1400.968872070 -1401.406860352 -1401.833129883 -1402.327514648 -1402.605224609 -1403.016357422 -1403.523803711 -1404.137817383 -1404.229003906 -1404.136352539 -1404.399047852 -1404.408935547 -1405.049804688 -1405.262207031 -1405.291137695 -1405.338867188 -1405.083618164 -1405.103027344 -1405.166625977 -1405.719726562 -1406.210571289 -1406.650268555 -1406.672973633 -1406.632446289 -1406.536743164 -1406.572875977 -1406.557617188 -1406.626098633 -1406.843261719 -1407.729248047 -1408.807250977 -1409.498168945 -1409.620361328 -1409.686279297 -1409.741821289 -1409.786376953 -1409.646606445 -1409.446166992 -1409.557006836 -1409.704101562 -1409.891479492 -1410.239013672 -1410.465698242 -1410.528564453 -1410.876098633 -1411.078857422 -1411.298461914 -1411.384887695 -1411.644042969 -1412.224731445 -1412.666503906 -1412.656005859 -1412.611328125 -1412.671386719 -1412.794311523 -1413.096069336 -1413.849487305 -1414.390747070 -1414.493286133 -1414.567871094 -1414.614868164 -1414.714965820 -1414.939208984 -1415.085571289 -1415.255859375 -1415.703125000 -1415.974121094 -1416.072753906 -1416.160522461 -1416.305786133 -1416.636718750 -1416.881225586 -1417.091430664 -1417.699951172 -1418.874023438 -1419.339599609 -1419.418457031 -1419.497924805 -1419.576171875 -1419.587890625 -1419.545166016 -1419.929809570 -1420.034667969 -1419.997802734 -1420.179199219 -1420.137207031 -1420.940917969 -1421.407226562 -1422.266601562 -1422.453491211 -1422.560424805 -1422.467773438 -1422.593872070 -1422.789184570 -1422.845214844 -1422.924804688 -1423.063964844 -1423.357910156 -1423.567260742 -1423.987182617 -1423.979736328 -1424.328979492
-1375.803955078 -1375.808715820 -1375.812377930 -1375.788330078 -1375.812622070 -1375.848876953 -1375.891967773 -1375.933105469 -1375.966308594 -1376.000976562 -1376.045166016 -1376.102050781 -1376.189819336 -1376.310424805 -1376.402343750 -1376.475952148 -1376.534301758 -1376.531860352 -1376.447509766 -1376.433471680 -1376.504516602 -1376.561279297 -1376.667724609 -1376.818603516 -1376.998413086 -1377.192871094 -1377.437133789 -1377.752685547 -1378.131835938 -1378.553833008 -1379.012817383 -1379.455200195 -1379.882202148 -1380.320556641 -1380.697875977 -1381.130126953 -1381.788208008 -1382.275878906 -1382.532836914 -1383.045654297 -1383.691528320 -1384.214599609 -1384.799926758 -1385.327514648 -1385.766845703 -1386.219726562 -1386.699707031 -1387.143676758 -1387.493530273 -1387.768310547 -1388.050903320 -1388.364379883 -1388.739013672 -1389.136474609 -1389.554077148 -1390.027587891 -1390.520874023 -1390.969482422 -1391.349365234 -1391.704711914 -1392.102539062 -1392.519531250 -1392.894775391 -1393.271484375 -1393.653320312 -1394.031616211 -1394.409057617 -1394.810058594 -1395.238891602 -1395.686157227 -1396.150024414 -1396.623046875 -1397.098266602 -1397.461425781 -1397.732177734 -1398.214599609 -1399.028320312 -1399.486572266 -1399.275146484 -1399.447753906 -1399.722412109 -1400.043945312 -1400.414916992 -1400.760986328 -1401.100952148 -1401.423583984 -1401.851562500 -1402.313354492 -1402.833496094 -1403.448120117 -1403.715454102 -1404.036132812 -1403.967285156 -1404.073730469 -1404.547729492 -1405.181152344 -1405.247924805 -1405.330078125 -1405.589233398 -1405.608642578 -1405.555175781 -1405.499877930 -1405.445800781 -1405.473999023 -1405.864257812 -1406.856689453 -1407.094726562 -1406.902099609 -1407.213623047 -1407.250610352 -1406.745849609 -1406.914794922 -1407.271850586 -1408.063964844 -1409.007202148 -1409.526489258 -1409.535034180 -1409.637817383 -1409.729614258 -1409.748168945 -1409.573608398 -1409.379150391 -1409.500854492 -1409.703613281 -1409.834228516 -1409.934326172 -1410.201416016 -1410.376953125 -1410.678100586 -1411.035400391 -1411.213867188 -1411.445800781 -1411.690429688 -1411.896972656 -1412.360717773 -1412.720458984 -1412.759887695 -1412.804443359 -1412.916259766 -1413.079711914 -1413.382812500 -1414.078247070 -1414.539428711 -1414.595825195 -1414.698730469 -1414.938476562 -1415.121704102 -1415.233154297 -1415.362915039 -1415.528930664 -1415.967895508 -1416.227172852 -1416.314208984 -1416.410644531 -1416.617675781 -1417.085693359 -1417.684692383 -1418.216308594 -1418.982055664 -1419.281616211 -1419.341186523 -1419.423095703 -1419.580444336 -1419.672607422 -1419.556274414 -1419.942626953 -1419.966918945 -1420.213989258 -1420.347412109 -1420.586547852 -1421.143066406 -1421.532714844 -1422.325927734 -1422.272705078 -1422.371459961 -1422.475952148 -1422.614013672 -1422.806640625 -1422.872924805 -1422.947021484 -1423.035034180 -1423.144042969 -1423.322509766 -1423.662109375 -1423.978759766 -1424.617309570
-1375.720336914 -1375.743774414 -1375.765991211 -1375.758422852 -1375.802490234 -1375.852294922 -1375.900512695 -1375.942871094 -1375.976928711 -1376.012573242 -1376.053466797 -1376.103149414 -1376.166870117 -1376.239990234 -1376.325195312 -1376.422241211 -1376.483764648 -1376.523681641 -1376.493164062 -1376.463989258 -1376.524414062 -1376.533569336 -1376.579467773 -1376.681640625 -1376.798095703 -1376.867797852 -1377.020629883 -1377.303710938 -1377.653320312 -1378.043701172 -1378.461303711 -1378.873901367 -1379.317871094 -1379.808959961 -1380.271728516 -1380.765014648 -1381.275024414 -1381.858032227 -1382.369750977 -1382.854003906 -1383.392944336 -1383.873657227 -1384.499267578 -1385.053710938 -1385.520629883 -1386.028320312 -1386.534667969 -1386.990966797 -1387.400878906 -1387.749023438 -1388.024780273 -1388.289672852 -1388.635253906 -1389.041870117 -1389.502807617 -1389.993408203 -1390.488769531 -1390.934448242 -1391.342407227 -1391.741210938 -1392.126464844 -1392.479614258 -1392.860839844 -1393.254028320 -1393.636596680 -1394.041870117 -1394.460937500 -1394.890136719 -1395.365356445 -1395.835083008 -1396.267089844 -1396.650634766 -1397.029785156 -1397.407714844 -1397.784301758 -1398.173583984 -1398.576416016 -1398.985595703 -1399.438232422 -1399.689697266 -1399.905273438 -1400.191040039 -1400.573974609 -1400.950073242 -1401.294921875 -1401.639282227 -1401.995117188 -1402.391845703 -1402.847167969 -1403.354370117 -1403.637329102 -1404.110107422 -1404.472167969 -1404.798461914 -1404.736694336 -1405.143920898 -1405.263671875 -1405.315917969 -1405.656372070 -1405.732543945 -1405.702514648 -1405.403198242 -1405.289550781 -1405.774291992 -1405.852661133 -1406.323364258 -1406.986938477 -1407.582153320 -1407.685058594 -1407.731567383 -1407.604736328 -1407.500976562 -1408.013671875 -1408.835083008 -1409.092773438 -1409.208496094 -1409.313720703 -1409.508911133 -1409.733886719 -1409.804809570 -1409.855468750 -1409.792602539 -1409.550170898 -1409.646484375 -1410.165649414 -1410.540039062 -1410.306518555 -1410.387939453 -1410.650146484 -1410.999267578 -1411.397338867 -1411.710937500 -1411.608032227 -1411.791137695 -1412.446044922 -1412.865722656 -1412.914916992 -1412.966064453 -1413.068237305 -1413.176391602 -1413.415527344 -1414.112915039 -1414.591796875 -1414.645385742 -1414.758666992 -1415.027587891 -1415.221191406 -1415.331542969 -1415.474853516 -1415.707275391 -1416.222290039 -1416.449829102 -1416.512329102 -1416.659545898 -1417.141601562 -1417.635498047 -1418.055908203 -1418.915893555 -1419.183349609 -1419.211791992 -1419.253417969 -1419.364501953 -1419.379516602 -1419.350585938 -1419.920898438 -1420.077392578 -1420.013427734 -1420.314697266 -1420.538696289 -1420.625488281 -1420.641357422 -1421.036743164 -1421.425781250 -1422.207885742 -1422.388061523 -1422.539916992 -1422.751220703 -1422.844116211 -1422.914672852 -1422.999267578 -1423.121582031 -1423.303833008 -1423.401733398 -1423.552490234 -1424.094848633 -1425.265991211
-1375.576171875 -1375.607910156 -1375.658935547 -1375.712646484 -1375.780883789 -1375.849487305 -1375.908813477 -1375.951660156 -1375.987915039 -1376.021240234 -1376.052856445 -1376.091918945 -1376.149780273 -1376.221313477 -1376.306274414 -1376.399291992 -1376.463867188 -1376.511962891 -1376.538696289 -1376.546752930 -1376.528320312 -1376.515136719 -1376.490966797 -1376.465454102 -1376.553100586 -1376.792724609 -1376.807983398 -1376.889404297 -1377.212280273 -1377.565307617 -1377.963745117 -1378.404663086 -1378.874389648 -1379.360351562 -1379.873779297 -1380.390380859 -1380.920898438 -1381.438720703 -1381.918212891 -1382.284667969 -1382.828247070 -1383.668334961 -1384.244750977 -1384.816772461 -1385.325561523 -1385.801513672 -1386.267089844 -1386.759033203 -1387.220825195 -1387.611083984 -1387.972656250 -1388.315429688 -1388.668823242 -1389.127929688 -1389.644042969 -1390.113403320 -1390.574096680 -1390.989990234 -1391.345947266 -1391.674682617 -1392.006469727 -1392.360961914 -1392.759033203 -1393.168579102 -1393.560546875 -1393.956054688 -1394.374511719 -1394.826416016 -1395.343627930 -1395.821166992 -1396.246948242 -1396.646118164 -1397.026000977 -1397.376708984 -1397.766357422 -1398.251220703 -1398.703735352 -1399.355468750 -1399.985961914 -1399.913330078 -1399.972412109 -1400.241455078 -1400.637817383 -1401.046875000 -1401.425292969 -1401.774047852 -1402.040771484 -1402.369873047 -1402.707275391 -1403.011596680 -1403.463012695 -1404.009277344 -1404.472534180 -1404.792114258 -1405.092529297 -1405.268066406 -1405.188354492 -1405.422607422 -1405.896972656 -1406.229980469 -1406.247924805 -1405.853515625 -1405.647827148 -1405.768188477 -1406.094726562 -1406.688354492 -1406.968872070 -1407.589599609 -1407.501953125 -1407.360473633 -1407.725341797 -1407.835693359 -1407.816528320 -1408.310791016 -1408.717407227 -1409.437744141 -1409.796020508 -1409.706054688 -1409.544677734 -1409.756591797 -1409.904296875 -1409.678466797 -1409.514892578 -1409.726196289 -1410.040039062 -1410.296142578 -1410.285034180 -1410.423706055 -1410.779541016 -1411.238891602 -1411.559448242 -1411.733154297 -1411.775390625 -1411.806762695 -1411.901123047 -1412.502441406 -1413.067626953 -1413.125976562 -1413.227783203 -1413.325073242 -1413.396484375 -1413.614501953 -1414.202270508 -1414.691406250 -1415.007568359 -1415.218872070 -1415.318237305 -1415.416748047 -1415.528198242 -1415.675048828 -1415.943481445 -1416.557006836 -1417.016845703 -1417.155883789 -1417.245971680 -1417.432617188 -1418.057617188 -1419.048217773 -1419.298339844 -1419.223754883 -1419.230224609 -1419.313964844 -1419.361694336 -1419.220703125 -1419.666137695 -1419.739746094 -1420.203491211 -1420.400390625 -1420.500976562 -1420.334350586 -1420.503906250 -1420.882568359 -1421.265258789 -1422.135009766 -1422.328125000 -1422.481811523 -1422.687866211 -1422.791015625 -1422.886474609 -1423.081176758 -1423.147216797 -1423.229370117 -1423.479492188 -1424.036499023 -1424.210815430 -1425.095336914
-1375.491699219 -1375.544311523 -1375.619995117 -1375.679199219 -1375.748535156 -1375.827514648 -1375.900268555 -1375.947143555 -1375.975341797 -1376.013427734 -1376.048828125 -1376.081909180 -1376.131591797 -1376.192749023 -1376.263305664 -1376.343139648 -1376.401367188 -1376.447387695 -1376.482910156 -1376.488281250 -1376.432250977 -1376.380371094 -1376.319946289 -1376.234497070 -1376.209594727 -1376.375610352 -1376.434204102 -1376.441040039 -1376.762207031 -1377.112915039 -1377.519165039 -1378.014892578 -1378.566162109 -1379.073364258 -1379.541870117 -1379.993896484 -1380.484130859 -1381.002075195 -1381.518066406 -1382.056274414 -1382.513427734 -1383.104736328 -1383.882324219 -1384.522338867 -1385.084228516 -1385.554809570 -1386.024291992 -1386.536987305 -1387.031616211 -1387.515991211 -1387.984008789 -1388.390136719 -1388.775878906 -1389.240112305 -1389.719970703 -1390.124145508 -1390.568603516 -1390.989013672 -1391.312866211 -1391.621093750 -1391.967529297 -1392.334960938 -1392.731567383 -1393.127197266 -1393.506713867 -1393.915771484 -1394.351928711 -1394.815673828 -1395.325683594 -1395.779785156 -1396.170776367 -1396.552246094 -1396.903686523 -1397.271240234 -1397.663574219 -1398.073364258 -1398.529785156 -1398.930541992 -1399.297485352 -1399.631591797 -1399.946899414 -1400.289184570 -1400.678344727 -1401.067016602 -1401.445678711 -1401.768310547 -1402.039794922 -1402.320678711 -1402.625732422 -1402.883666992 -1403.205810547 -1403.722534180 -1404.491699219 -1404.702270508 -1404.930664062 -1405.186035156 -1405.224365234 -1405.350585938 -1405.686035156 -1406.234863281 -1406.279296875 -1405.951782227 -1405.772949219 -1405.837524414 -1405.882812500 -1406.203857422 -1406.962158203 -1407.365234375 -1407.665527344 -1407.890991211 -1407.606933594 -1407.820068359 -1408.118774414 -1408.274047852 -1408.666503906 -1409.267089844 -1409.600708008 -1410.020019531 -1410.087036133 -1409.886230469 -1409.641845703 -1410.047973633 -1410.260375977 -1410.130126953 -1410.489501953 -1410.253173828 -1410.613281250 -1410.935546875 -1411.009033203 -1411.212524414 -1411.434082031 -1411.588989258 -1411.740478516 -1411.811523438 -1412.019531250 -1412.644775391 -1413.101806641 -1413.201782227 -1413.382690430 -1413.470581055 -1413.527954102 -1413.713867188 -1414.234985352 -1414.650146484 -1414.973754883 -1415.273437500 -1415.416503906 -1415.515747070 -1415.625976562 -1415.819458008 -1416.263916016 -1416.894042969 -1417.140258789 -1417.231567383 -1417.376220703 -1417.696411133 -1418.549194336 -1419.210571289 -1419.354858398 -1419.226196289 -1419.205932617 -1419.149902344 -1419.017700195 -1419.641479492 -1419.925415039 -1419.956909180 -1420.209960938 -1420.019409180 -1420.069580078 -1420.182495117 -1420.242919922 -1420.228515625 -1420.940551758 -1421.801513672 -1422.285034180 -1422.530883789 -1422.695800781 -1422.955688477 -1422.991333008 -1423.036376953 -1423.249023438 -1423.901977539 -1424.164794922 -1424.030517578 -1424.088256836 -1424.563964844
-1375.520874023 -1375.577392578 -1375.641235352 -1375.686157227 -1375.745483398 -1375.820434570 -1375.889282227 -1375.943603516 -1375.980102539 -1376.008300781 -1376.044555664 -1376.077392578 -1376.118530273 -1376.163818359 -1376.204345703 -1376.249023438 -1376.294799805 -1376.347045898 -1376.379760742 -1376.386718750 -1376.376831055 -1376.364379883 -1376.317138672 -1376.226806641 -1376.108886719 -1375.902587891 -1375.706909180 -1375.975097656 -1376.231445312 -1376.715087891 -1377.207031250 -1377.739746094 -1378.278930664 -1378.800537109 -1379.311645508 -1379.760742188 -1380.133056641 -1380.534545898 -1381.013427734 -1381.620361328 -1382.329467773 -1383.050048828 -1383.739135742 -1384.399291992 -1384.987548828 -1385.511108398 -1386.011352539 -1386.504150391 -1386.976562500 -1387.463256836 -1387.928955078 -1388.336059570 -1388.769653320 -1389.292358398 -1389.761718750 -1390.155151367 -1390.592041016 -1390.988159180 -1391.314697266 -1391.622436523 -1391.976684570 -1392.373779297 -1392.779296875 -1393.169677734 -1393.556518555 -1393.954956055 -1394.360717773 -1394.791992188 -1395.283935547 -1395.740844727 -1396.131591797 -1396.510253906 -1396.863647461 -1397.213867188 -1397.555664062 -1397.953125000 -1398.435424805 -1398.778930664 -1399.141113281 -1399.505126953 -1399.848754883 -1400.157836914 -1400.550903320 -1400.974121094 -1401.364501953 -1401.699829102 -1401.958862305 -1402.257446289 -1402.579101562 -1402.799926758 -1403.269897461 -1403.754638672 -1404.445312500 -1404.738769531 -1404.934204102 -1405.122192383 -1405.357421875 -1405.768066406 -1405.921630859 -1406.413330078 -1406.221679688 -1406.098876953 -1406.157470703 -1406.144531250 -1406.528564453 -1406.215576172 -1406.966796875 -1407.564086914 -1407.275390625 -1407.445678711 -1407.499145508 -1407.846557617 -1408.101074219 -1408.196289062 -1408.336303711 -1408.802001953 -1409.633666992 -1410.080078125 -1410.216552734 -1410.320922852 -1410.314453125 -1409.928955078 -1409.390258789 -1409.663818359 -1410.403198242 -1411.044555664 -1411.026977539 -1411.036376953 -1411.090209961 -1411.132202148 -1411.262451172 -1411.512573242 -1411.686645508 -1411.768798828 -1411.851562500 -1412.086669922 -1412.782348633 -1413.327514648 -1413.409545898 -1413.547119141 -1413.657104492 -1413.716796875 -1413.956298828 -1414.683349609 -1415.156494141 -1415.239135742 -1415.354125977 -1415.601196289 -1415.909301758 -1416.078247070 -1416.188354492 -1416.450805664 -1417.021606445 -1417.331787109 -1417.491943359 -1417.782348633 -1418.397705078 -1418.807250977 -1419.011352539 -1419.266113281 -1419.264160156 -1419.340698242 -1419.287841797 -1419.756347656 -1419.858276367 -1419.738403320 -1419.782958984 -1419.856689453 -1419.959106445 -1420.067993164 -1420.186279297 -1420.368164062 -1420.823730469 -1421.686889648 -1422.300170898 -1422.765258789 -1422.877075195 -1422.950073242 -1423.083984375 -1423.636596680 -1424.095825195 -1424.104492188 -1424.001953125 -1424.014404297 -1424.098632812 -1424.536010742
-1375.547851562 -1375.603393555 -1375.660888672 -1375.706054688 -1375.761596680 -1375.824096680 -1375.882934570 -1375.932006836 -1375.970092773 -1376.000488281 -1376.026367188 -1376.062744141 -1376.102172852 -1376.126464844 -1376.132202148 -1376.182495117 -1376.264892578 -1376.322509766 -1376.366821289 -1376.374023438 -1376.342407227 -1376.340942383 -1376.306640625 -1376.223266602 -1376.120483398 -1376.017211914 -1375.803588867 -1375.499145508 -1375.511962891 -1376.193237305 -1376.830444336 -1377.355102539 -1377.903320312 -1378.440307617 -1378.949707031 -1379.444213867 -1379.859619141 -1380.298095703 -1380.820190430 -1381.466308594 -1382.147827148 -1382.873779297 -1383.592163086 -1384.246459961 -1384.830932617 -1385.379028320 -1385.916137695 -1386.446533203 -1386.942626953 -1387.412597656 -1387.871704102 -1388.333862305 -1388.848510742 -1389.359252930 -1389.792846680 -1390.216308594 -1390.565673828 -1390.861083984 -1391.224731445 -1391.597534180 -1391.962402344 -1392.344726562 -1392.733154297 -1393.127563477 -1393.541992188 -1393.950439453 -1394.359130859 -1394.801147461 -1395.292480469 -1395.743286133 -1396.120971680 -1396.471435547 -1396.769897461 -1397.072875977 -1397.436157227 -1397.820068359 -1398.157836914 -1398.569091797 -1398.920410156 -1399.335571289 -1399.734375000 -1400.116455078 -1400.506225586 -1400.892822266 -1401.269653320 -1401.614746094 -1401.958618164 -1402.272094727 -1402.614624023 -1403.012084961 -1403.400024414 -1403.726196289 -1404.431274414 -1404.842407227 -1404.996093750 -1405.115478516 -1405.174682617 -1405.495483398 -1405.772949219 -1406.233520508 -1406.197631836 -1406.299804688 -1405.921020508 -1405.984985352 -1406.314819336 -1406.900146484 -1406.530151367 -1406.872436523 -1407.165039062 -1407.295898438 -1407.639282227 -1408.142944336 -1408.183471680 -1408.183471680 -1408.313354492 -1408.756958008 -1409.443969727 -1409.826538086 -1410.301391602 -1410.413818359 -1410.465698242 -1410.650146484 -1410.969116211 -1410.994995117 -1411.038696289 -1411.068237305 -1411.080932617 -1411.098754883 -1411.141967773 -1411.218994141 -1411.338012695 -1411.434448242 -1411.543334961 -1411.715087891 -1411.819702148 -1412.073608398 -1412.822998047 -1413.429931641 -1413.540283203 -1413.595458984 -1413.622192383 -1413.754516602 -1413.994384766 -1414.560424805 -1415.117675781 -1415.361206055 -1415.582885742 -1415.718139648 -1415.767700195 -1415.965087891 -1416.193725586 -1416.498535156 -1417.099365234 -1417.434204102 -1417.708740234 -1418.246093750 -1418.598266602 -1418.945190430 -1419.099975586 -1419.102172852 -1419.075683594 -1419.079589844 -1419.612792969 -1419.311767578 -1419.265136719 -1419.582397461 -1419.775878906 -1419.905517578 -1419.965209961 -1419.975952148 -1420.059082031 -1420.198730469 -1420.854003906 -1422.012939453 -1422.408691406 -1422.765136719 -1422.956054688 -1423.393310547 -1423.764526367 -1423.857421875 -1423.854492188 -1423.785156250 -1423.881835938 -1423.978393555 -1424.134399414 -1424.556152344
-1375.581542969 -1375.631835938 -1375.678588867 -1375.727661133 -1375.779418945 -1375.832885742 -1375.884765625 -1375.923095703 -1375.952636719 -1375.978149414 -1376.006958008 -1376.046630859 -1376.084716797 -1376.100341797 -1376.087280273 -1376.110351562 -1376.149536133 -1376.230224609 -1376.301025391 -1376.353881836 -1376.356323242 -1376.349365234 -1376.308715820 -1376.243530273 -1376.126831055 -1375.990356445 -1375.850830078 -1375.693969727 -1375.594238281 -1375.863159180 -1376.482666016 -1377.009277344 -1377.613281250 -1378.149291992 -1378.652587891 -1379.173095703 -1379.667968750 -1380.167480469 -1380.763427734 -1381.459106445 -1382.118408203 -1382.788330078 -1383.458129883 -1384.047729492 -1384.612670898 -1385.218139648 -1385.752685547 -1386.291992188 -1386.807983398 -1387.270874023 -1387.757080078 -1388.295410156 -1388.855102539 -1389.413574219 -1389.890136719 -1390.167724609 -1390.411987305 -1390.698852539 -1391.016479492 -1391.414184570 -1391.820434570 -1392.235351562 -1392.648315430 -1393.011962891 -1393.422973633 -1393.859375000 -1394.277099609 -1394.712646484 -1395.209350586 -1395.667480469 -1396.010375977 -1396.390014648 -1396.729125977 -1397.073120117 -1397.453491211 -1397.816528320 -1398.158569336 -1398.546142578 -1398.970947266 -1399.376464844 -1399.728027344 -1400.098754883 -1400.464355469 -1400.828613281 -1401.193481445 -1401.583251953 -1401.967285156 -1402.316406250 -1402.656250000 -1403.021484375 -1403.427124023 -1403.885009766 -1404.378784180 -1404.711425781 -1404.793579102 -1404.979003906 -1405.155029297 -1405.465209961 -1405.848388672 -1406.069091797 -1406.324462891 -1406.473144531 -1406.864257812 -1407.000732422 -1405.944335938 -1406.131347656 -1406.316772461 -1406.638305664 -1407.078247070 -1407.227539062 -1407.292480469 -1407.458618164 -1407.928344727 -1408.178344727 -1408.260864258 -1408.373779297 -1408.834106445 -1409.762573242 -1410.317626953 -1410.535644531 -1410.691528320 -1410.578735352 -1410.526611328 -1410.747436523 -1410.727416992 -1411.126098633 -1411.141601562 -1411.160888672 -1411.203002930 -1411.262451172 -1411.335327148 -1411.478637695 -1411.689331055 -1411.809692383 -1411.865600586 -1412.049316406 -1412.592163086 -1413.326660156 -1413.690063477 -1413.744018555 -1413.767211914 -1413.730468750 -1413.577880859 -1413.932373047 -1414.982421875 -1415.536621094 -1415.549194336 -1415.598876953 -1415.688232422 -1415.779418945 -1415.962158203 -1416.338378906 -1416.745483398 -1417.367919922 -1417.828491211 -1418.339111328 -1418.604370117 -1418.808959961 -1419.135131836 -1419.313842773 -1419.195312500 -1418.515869141 -1418.665771484 -1418.909301758 -1419.259155273 -1419.510253906 -1419.702758789 -1419.866943359 -1420.028320312 -1420.175659180 -1420.264770508 -1420.574829102 -1421.429077148 -1421.969116211 -1422.398559570 -1423.049804688 -1423.228881836 -1423.575439453 -1423.667114258 -1423.748168945 -1423.743652344 -1423.713378906 -1423.855468750 -1423.921752930 -1424.123535156 -1424.713012695
-1375.575561523 -1375.630126953 -1375.681152344 -1375.732788086 -1375.786254883 -1375.835083008 -1375.878784180 -1375.908447266 -1375.932006836 -1375.958007812 -1375.988647461 -1376.024414062 -1376.064453125 -1376.094238281 -1376.102050781 -1376.127807617 -1376.170166016 -1376.241577148 -1376.293945312 -1376.348999023 -1376.365234375 -1376.373901367 -1376.345947266 -1376.306274414 -1376.207763672 -1376.074584961 -1375.935302734 -1375.830444336 -1375.818969727 -1376.008666992 -1376.354370117 -1376.783935547 -1377.307373047 -1377.833740234 -1378.355712891 -1378.925415039 -1379.445068359 -1379.980834961 -1380.568725586 -1381.192626953 -1381.840942383 -1382.536499023 -1383.203857422 -1383.759521484 -1384.296997070 -1384.956909180 -1385.532592773 -1386.042724609 -1386.564331055 -1387.082153320 -1387.571166992 -1388.070922852 -1388.600585938 -1389.121948242 -1389.615356445 -1390.056152344 -1390.371093750 -1390.643066406 -1390.936401367 -1391.238525391 -1391.580078125 -1391.969482422 -1392.380004883 -1392.768432617 -1393.209350586 -1393.682739258 -1394.147216797 -1394.589721680 -1395.041015625 -1395.469604492 -1395.886840820 -1396.281616211 -1396.650634766 -1397.013427734 -1397.397094727 -1397.749511719 -1398.096435547 -1398.528930664 -1398.974487305 -1399.365356445 -1399.715454102 -1400.135620117 -1400.496582031 -1400.835449219 -1401.161254883 -1401.540771484 -1401.946533203 -1402.347412109 -1402.742431641 -1403.129638672 -1403.539672852 -1403.901611328 -1404.335815430 -1404.655517578 -1404.843750000 -1405.042968750 -1405.322265625 -1405.673339844 -1405.985229492 -1406.207641602 -1406.520507812 -1406.549682617 -1406.682373047 -1407.092163086 -1406.540161133 -1406.797607422 -1406.502075195 -1406.692749023 -1406.904541016 -1407.139892578 -1407.419433594 -1407.736328125 -1408.152587891 -1408.132080078 -1408.093994141 -1408.558959961 -1409.144897461 -1409.740356445 -1410.062377930 -1410.448486328 -1410.596191406 -1411.249511719 -1411.304565430 -1411.232299805 -1411.155517578 -1411.161376953 -1411.196777344 -1411.240112305 -1411.281494141 -1411.320922852 -1411.388916016 -1411.509277344 -1411.700927734 -1411.941406250 -1412.228515625 -1412.614868164 -1412.973876953 -1413.425415039 -1413.820434570 -1413.861694336 -1413.874389648 -1413.944335938 -1414.139892578 -1414.372070312 -1414.756225586 -1415.223510742 -1415.463256836 -1415.573364258 -1415.672119141 -1415.769775391 -1415.905517578 -1416.080566406 -1416.417602539 -1417.277954102 -1418.039794922 -1418.334350586 -1418.463134766 -1418.655395508 -1418.940551758 -1418.928222656 -1419.179077148 -1418.971923828 -1419.536499023 -1419.271728516 -1419.493286133 -1419.706665039 -1419.871826172 -1420.028564453 -1420.249145508 -1420.604003906 -1420.868652344 -1421.587280273 -1421.661254883 -1421.760742188 -1422.593383789 -1422.842773438 -1423.196166992 -1423.260864258 -1423.327392578 -1423.559448242 -1423.567871094 -1423.603271484 -1423.796386719 -1424.150146484 -1424.450927734 -1425.135986328
-1375.592163086 -1375.648559570 -1375.695678711 -1375.733764648 -1375.781982422 -1375.829956055 -1375.877075195 -1375.903198242 -1375.920654297 -1375.929931641 -1375.954345703 -1375.988159180 -1376.039550781 -1376.101440430 -1376.157836914 -1376.208740234 -1376.247802734 -1376.273315430 -1376.287841797 -1376.337646484 -1376.393310547 -1376.402709961 -1376.416748047 -1376.395141602 -1376.270751953 -1376.144409180 -1376.039062500 -1375.956176758 -1375.910888672 -1375.985961914 -1376.250122070 -1376.703613281 -1377.212768555 -1377.621215820 -1378.082031250 -1378.622436523 -1379.165893555 -1379.725341797 -1380.302978516 -1380.874389648 -1381.467163086 -1382.101806641 -1382.831665039 -1383.524658203 -1384.104614258 -1384.702026367 -1385.227905273 -1385.757934570 -1386.392456055 -1386.963134766 -1387.477661133 -1387.971801758 -1388.520874023 -1389.100830078 -1389.567504883 -1389.969116211 -1390.323486328 -1390.613891602 -1390.862792969 -1391.110717773 -1391.407714844 -1391.784790039 -1392.214111328 -1392.648803711 -1393.114257812 -1393.583374023 -1394.032470703 -1394.492431641 -1394.933715820 -1395.316772461 -1395.687500000 -1396.073974609 -1396.473754883 -1396.877197266 -1397.281860352 -1397.658935547 -1398.046630859 -1398.482910156 -1398.916503906 -1399.318847656 -1399.745727539 -1400.072143555 -1400.410522461 -1400.773925781 -1401.120239258 -1401.500732422 -1401.903564453 -1402.283325195 -1402.664428711 -1403.071777344 -1403.482666016 -1403.896362305 -1404.296630859 -1404.430053711 -1404.726562500 -1405.095825195 -1405.434936523 -1405.614624023 -1405.904785156 -1406.065673828 -1406.416992188 -1406.367431641 -1406.820434570 -1407.369018555 -1407.174072266 -1406.894653320 -1407.270263672 -1407.218627930 -1407.036987305 -1407.138305664 -1407.126586914 -1407.286499023 -1407.822875977 -1408.181884766 -1407.957763672 -1408.224365234 -1409.032348633 -1409.894653320 -1410.327026367 -1410.722534180 -1410.751831055 -1410.989257812 -1411.310546875 -1411.246948242 -1411.009887695 -1410.988891602 -1411.218505859 -1411.261474609 -1411.322265625 -1411.377319336 -1411.426757812 -1411.502319336 -1411.700317383 -1412.012939453 -1412.369384766 -1412.882446289 -1413.259643555 -1413.332885742 -1413.562622070 -1413.646972656 -1413.858642578 -1414.172485352 -1414.197021484 -1414.241577148 -1414.436157227 -1414.923217773 -1415.279296875 -1415.488403320 -1415.642211914 -1415.752075195 -1415.894897461 -1416.067138672 -1416.279785156 -1416.768798828 -1417.828369141 -1418.257934570 -1418.262817383 -1418.148803711 -1418.683227539 -1419.345825195 -1419.527709961 -1419.369873047 -1418.994750977 -1419.767822266 -1420.169189453 -1419.953979492 -1420.062133789 -1420.356323242 -1420.523681641 -1420.655273438 -1420.926513672 -1421.670654297 -1421.922729492 -1422.168212891 -1422.519042969 -1422.821655273 -1423.228271484 -1423.345825195 -1423.375000000 -1423.277221680 -1423.315795898 -1423.798950195 -1423.884765625 -1424.032714844 -1424.398437500 -1425.092773438
-1375.614501953 -1375.673339844 -1375.716186523 -1375.744873047 -1375.789550781 -1375.827514648 -1375.849609375 -1375.860351562 -1375.880615234 -1375.893066406 -1375.927856445 -1375.975585938 -1376.032958984 -1376.091552734 -1376.141357422 -1376.192138672 -1376.243164062 -1376.299926758 -1376.361328125 -1376.436035156 -1376.496459961 -1376.522949219 -1376.479858398 -1376.434082031 -1376.341796875 -1376.220581055 -1376.101318359 -1375.984985352 -1375.907470703 -1375.902954102 -1375.994750977 -1376.236450195 -1376.675903320 -1377.263671875 -1377.776855469 -1378.309936523 -1378.865966797 -1379.354614258 -1379.902832031 -1380.460083008 -1381.013916016 -1381.629516602 -1382.362670898 -1383.161865234 -1383.887573242 -1384.468994141 -1385.009277344 -1385.716308594 -1386.348022461 -1386.890502930 -1387.421508789 -1387.904052734 -1388.381591797 -1388.876220703 -1389.359375000 -1389.793701172 -1390.173461914 -1390.536865234 -1390.829956055 -1391.070678711 -1391.332641602 -1391.684814453 -1392.113159180 -1392.546142578 -1392.999023438 -1393.468872070 -1393.925292969 -1394.381835938 -1394.804199219 -1395.182373047 -1395.572021484 -1395.941894531 -1396.277954102 -1396.605834961 -1396.979736328 -1397.344360352 -1397.776367188 -1398.276733398 -1398.742309570 -1399.156494141 -1399.567382812 -1399.944946289 -1400.342041016 -1400.702636719 -1401.039916992 -1401.411376953 -1401.783447266 -1402.157104492 -1402.510253906 -1402.933349609 -1403.345947266 -1403.752563477 -1404.205932617 -1404.690429688 -1405.099731445 -1405.105346680 -1405.308959961 -1405.292846680 -1405.761352539 -1406.087524414 -1406.320678711 -1406.365112305 -1406.635009766 -1407.228027344 -1407.200073242 -1406.949218750 -1407.119384766 -1407.286499023 -1407.406494141 -1407.371459961 -1407.172973633 -1407.189331055 -1407.393310547 -1407.927856445 -1408.338623047 -1408.318359375 -1408.916748047 -1409.160156250 -1409.652587891 -1409.944213867 -1410.197631836 -1410.792114258 -1411.124511719 -1411.527954102 -1411.452270508 -1411.274047852 -1411.266601562 -1411.321411133 -1411.398437500 -1411.437255859 -1411.446777344 -1411.527099609 -1411.724853516 -1412.128417969 -1412.803466797 -1413.325439453 -1413.498901367 -1413.744018555 -1413.983154297 -1414.027587891 -1414.022338867 -1414.098632812 -1414.162963867 -1414.245849609 -1414.403686523 -1414.768310547 -1415.147827148 -1415.341064453 -1415.475708008 -1415.682495117 -1415.882324219 -1416.076904297 -1416.568359375 -1417.733032227 -1418.227539062 -1418.332031250 -1418.373046875 -1418.317260742 -1418.766235352 -1419.364868164 -1419.568847656 -1419.414916992 -1419.165405273 -1420.028198242 -1420.339965820 -1420.168090820 -1420.223022461 -1420.364746094 -1420.491699219 -1420.734497070 -1421.517822266 -1421.796752930 -1422.010131836 -1422.295166016 -1422.714965820 -1422.895874023 -1423.056884766 -1423.379394531 -1423.456420898 -1423.783447266 -1423.518066406 -1423.503662109 -1423.669555664 -1424.056030273 -1424.488525391 -1424.786376953
-1375.631347656 -1375.702148438 -1375.740478516 -1375.758056641 -1375.792358398 -1375.853271484 -1375.886352539 -1375.868530273 -1375.859741211 -1375.874267578 -1375.917358398 -1375.978027344 -1376.035766602 -1376.086914062 -1376.117797852 -1376.143798828 -1376.176391602 -1376.229980469 -1376.317260742 -1376.434082031 -1376.537841797 -1376.604370117 -1376.588256836 -1376.533447266 -1376.437133789 -1376.309448242 -1376.178710938 -1376.066772461 -1375.956298828 -1375.888061523 -1375.869018555 -1376.008911133 -1376.487060547 -1377.034912109 -1377.315063477 -1377.719726562 -1378.275756836 -1378.913208008 -1379.543945312 -1380.100341797 -1380.670288086 -1381.300659180 -1381.984497070 -1382.682739258 -1383.324584961 -1383.911987305 -1384.480224609 -1385.239013672 -1386.120849609 -1386.774291992 -1387.355834961 -1387.867187500 -1388.325805664 -1388.755981445 -1389.208618164 -1389.659545898 -1390.061157227 -1390.460937500 -1390.807250977 -1391.050903320 -1391.281982422 -1391.604980469 -1392.000976562 -1392.438232422 -1392.904052734 -1393.374755859 -1393.824096680 -1394.248291016 -1394.629638672 -1394.985595703 -1395.357177734 -1395.711669922 -1396.051269531 -1396.412353516 -1396.779052734 -1397.113403320 -1397.520019531 -1397.945190430 -1398.358642578 -1398.810668945 -1399.222412109 -1399.621948242 -1400.086791992 -1400.557983398 -1400.969238281 -1401.335815430 -1401.698974609 -1402.066162109 -1402.413574219 -1402.815429688 -1403.176879883 -1403.602294922 -1404.167236328 -1404.562500000 -1404.976440430 -1405.329223633 -1405.452026367 -1405.829956055 -1406.257080078 -1406.242309570 -1406.543090820 -1406.457275391 -1406.652832031 -1407.161254883 -1407.340332031 -1407.229125977 -1407.016967773 -1407.403808594 -1407.477661133 -1407.413574219 -1407.482421875 -1407.591064453 -1407.598266602 -1407.549072266 -1407.629394531 -1407.988769531 -1408.805541992 -1409.080566406 -1409.587036133 -1410.045410156 -1410.109375000 -1410.185180664 -1410.598144531 -1411.075317383 -1411.171142578 -1411.117797852 -1411.084106445 -1411.265502930 -1411.326049805 -1411.340087891 -1411.294555664 -1411.310546875 -1411.472900391 -1411.911376953 -1412.640014648 -1413.182006836 -1413.296386719 -1413.362670898 -1413.542114258 -1413.456909180 -1413.750854492 -1414.232666016 -1414.275268555 -1414.341552734 -1414.449462891 -1414.673828125 -1415.167114258 -1415.457763672 -1415.542236328 -1415.637207031 -1415.812988281 -1416.127807617 -1416.614013672 -1417.612548828 -1418.392700195 -1418.496215820 -1418.546997070 -1418.771240234 -1419.091064453 -1419.065795898 -1419.405517578 -1419.286376953 -1419.801147461 -1419.563842773 -1419.845336914 -1420.046752930 -1420.176025391 -1420.328369141 -1420.475219727 -1420.770996094 -1421.553222656 -1421.856323242 -1422.100463867 -1422.360961914 -1422.713134766 -1423.029541016 -1423.259521484 -1423.442626953 -1423.417846680 -1423.538208008 -1423.449707031 -1423.432373047 -1423.577270508 -1423.808105469 -1424.183349609 -1424.469116211
