-4515.908691406 -4515.841796875 -4515.767089844 -4515.661132813 -4515.578613281 -4515.543457031 -4515.577148438 -4515.655761719 -4515.731933594 -4515.767089844 -4515.768066406 -4515.756347656 -4515.740234375 -4515.718261719 -4515.716308594 -4515.741699219 -4515.787109375 -4515.846191406 -4515.924804688 -4516.020019531 -4516.103027344 -4516.146484375 -4516.154785156 -4516.159667969 -4516.185546875 -4516.229980469 -4516.247558594 -4516.246093750 -4516.248535156 -4516.240234375 -4516.193359375 -4516.108886719 -4516.029296875 -4516.018066406 -4516.059570313 -4516.099121094 -4516.111816406 -4516.100585938 -4516.088378906 -4516.105957031 -4516.148437500 -4516.189453125 -4516.212890625 -4516.225097656 -4516.244140625 -4516.286132813 -4516.344726563 -4516.387207031 -4516.401367188 -4516.402832031 -4516.403320313 -4516.460937500 -4516.564453125 -4516.641601563 -4516.668945313 -4516.686035156 -4516.700195313 -4516.718261719 -4516.761718750 -4516.804687500 -4516.822753906 -4516.826660156 -4516.830566406 -4516.827636719
-4515.899902344 -4515.807128906 -4515.744628906 -4515.664062500 -4515.601562500 -4515.583984375 -4515.623046875 -4515.674316406 -4515.709472656 -4515.709960938 -4515.681640625 -4515.651367188 -4515.637207031 -4515.639160156 -4515.670410156 -4515.728027344 -4515.795410156 -4515.862304688 -4515.935058594 -4516.019531250 -4516.093261719 -4516.127441406 -4516.139160156 -4516.161132813 -4516.202148438 -4516.248046875 -4516.249023438 -4516.219238281 -4516.192382813 -4516.146972656 -4516.058593750 -4515.987792969 -4515.974121094 -4516.001464844 -4516.038574219 -4516.057128906 -4516.047363281 -4516.034667969 -4516.053222656 -4516.104003906 -4516.175292969 -4516.241699219 -4516.269531250 -4516.270019531 -4516.265136719 -4516.284179688 -4516.336425781 -4516.390625000 -4516.423339844 -4516.429687500 -4516.412109375 -4516.438476563 -4516.527832031 -4516.607421875 -4516.653808594 -4516.682617188 -4516.695800781 -4516.715332031 -4516.770996094 -4516.811523438 -4516.826660156 -4516.840332031 -4516.845214844 -4516.829101563
-4515.842773438 -4515.784667969 -4515.755859375 -4515.708984375 -4515.671875000 -4515.670410156 -4515.691894531 -4515.700195313 -4515.689453125 -4515.652343750 -4515.593261719 -4515.548828125 -4515.536621094 -4515.571289063 -4515.658691406 -4515.757812500 -4515.833007813 -4515.887695313 -4515.931152344 -4515.990234375 -4516.060058594 -4516.093261719 -4516.114257813 -4516.172851563 -4516.232421875 -4516.249023438 -4516.216796875 -4516.153808594 -4516.071777344 -4515.984375000 -4515.915039063 -4515.896972656 -4515.929687500 -4515.970214844 -4515.989746094 -4515.982910156 -4515.960449219 -4515.956054688 -4516.013183594 -4516.110351563 -4516.215332031 -4516.297363281 -4516.324218750 -4516.313964844 -4516.289062500 -4516.279296875 -4516.314941406 -4516.385742188 -4516.443359375 -4516.456054688 -4516.436523438 -4516.440429688 -4516.499511719 -4516.587890625 -4516.666992188 -4516.715332031 -4516.739746094 -4516.761718750 -4516.802246094 -4516.832031250 -4516.844726563 -4516.854492188 -4516.851074219 -4516.829101563
-4515.808593750 -4515.785156250 -4515.766113281 -4515.748535156 -4515.734863281 -4515.730957031 -4515.721679688 -4515.700683594 -4515.666503906 -4515.607421875 -4515.534667969 -4515.482910156 -4515.476562500 -4515.543457031 -4515.657226563 -4515.766601563 -4515.842773438 -4515.887695313 -4515.903808594 -4515.933105469 -4515.994140625 -4516.031250000 -4516.061523438 -4516.135742188 -4516.206542969 -4516.221679688 -4516.175292969 -4516.085937500 -4515.968261719 -4515.871093750 -4515.837402344 -4515.854003906 -4515.892578125 -4515.926269531 -4515.937011719 -4515.923339844 -4515.906738281 -4515.916503906 -4515.998535156 -4516.119628906 -4516.239746094 -4516.321289063 -4516.339355469 -4516.321289063 -4516.286132813 -4516.264160156 -4516.292480469 -4516.376953125 -4516.446289063 -4516.458496094 -4516.439941406 -4516.432617188 -4516.476562500 -4516.580078125 -4516.696289063 -4516.759277344 -4516.793945313 -4516.818847656 -4516.841796875 -4516.855957031 -4516.861816406 -4516.867187500 -4516.864257813 -4516.843750000
-4515.823730469 -4515.808593750 -4515.814453125 -4515.795898438 -4515.782714844 -4515.768066406 -4515.736328125 -4515.695800781 -4515.650390625 -4515.591796875 -4515.529296875 -4515.479492188 -4515.470703125 -4515.535156250 -4515.636230469 -4515.733886719 -4515.807128906 -4515.846191406 -4515.853515625 -4515.878417969 -4515.930664063 -4515.963378906 -4516.001464844 -4516.071777344 -4516.133789063 -4516.156250000 -4516.123046875 -4516.034667969 -4515.916992188 -4515.832031250 -4515.814453125 -4515.838867188 -4515.871093750 -4515.889160156 -4515.889160156 -4515.881347656 -4515.878906250 -4515.902343750 -4515.982910156 -4516.095214844 -4516.205566406 -4516.275390625 -4516.285156250 -4516.279296875 -4516.257324219 -4516.237792969 -4516.272460938 -4516.354980469 -4516.422851563 -4516.439453125 -4516.420898438 -4516.408691406 -4516.456054688 -4516.563964844 -4516.670410156 -4516.744140625 -4516.801269531 -4516.833984375 -4516.850097656 -4516.853515625 -4516.858398438 -4516.868164063 -4516.870117188 -4516.857421875
-4515.853027344 -4515.843750000 -4515.863769531 -4515.843261719 -4515.820800781 -4515.795410156 -4515.750000000 -4515.706542969 -4515.667480469 -4515.623046875 -4515.579589844 -4515.536621094 -4515.510253906 -4515.546875000 -4515.624023438 -4515.704101563 -4515.765136719 -4515.803710938 -4515.813476563 -4515.832519531 -4515.876464844 -4515.919433594 -4515.969726563 -4516.029296875 -4516.072753906 -4516.082519531 -4516.048828125 -4515.975097656 -4515.880371094 -4515.814941406 -4515.808593750 -4515.836914063 -4515.861816406 -4515.864746094 -4515.855957031 -4515.851074219 -4515.859863281 -4515.888671875 -4515.962402344 -4516.049804688 -4516.118164063 -4516.160644531 -4516.165527344 -4516.174804688 -4516.183593750 -4516.184082031 -4516.224121094 -4516.306152344 -4516.375000000 -4516.395996094 -4516.382324219 -4516.372070313 -4516.420410156 -4516.513183594 -4516.591308594 -4516.672851563 -4516.749511719 -4516.789550781 -4516.809570313 -4516.816894531 -4516.831542969 -4516.854492188 -4516.856933594 -4516.846191406
-4515.866699219 -4515.856445313 -4515.846679688 -4515.825195313 -4515.817382813 -4515.799316406 -4515.763671875 -4515.729003906 -4515.702148438 -4515.673828125 -4515.644531250 -4515.610351563 -4515.575195313 -4515.576660156 -4515.622070313 -4515.678222656 -4515.727050781 -4515.771484375 -4515.793457031 -4515.810058594 -4515.840332031 -4515.883300781 -4515.939941406 -4515.993652344 -4516.025878906 -4516.023437500 -4515.979492188 -4515.904296875 -4515.828125000 -4515.792480469 -4515.806152344 -4515.839843750 -4515.859375000 -4515.852539063 -4515.833496094 -4515.820312500 -4515.833007813 -4515.869140625 -4515.932617188 -4515.997558594 -4516.038574219 -4516.059570313 -4516.062988281 -4516.085937500 -4516.112304688 -4516.127441406 -4516.166015625 -4516.236816406 -4516.298339844 -4516.320800781 -4516.317382813 -4516.316894531 -4516.354980469 -4516.418457031 -4516.484863281 -4516.568847656 -4516.650878906 -4516.700195313 -4516.730468750 -4516.749511719 -4516.780761719 -4516.812011719 -4516.811035156 -4516.809570313
-4515.867675781 -4515.816894531 -4515.787109375 -4515.783203125 -4515.800781250 -4515.820312500 -4515.817871094 -4515.780761719 -4515.750000000 -4515.721679688 -4515.691406250 -4515.654785156 -4515.606933594 -4515.579101563 -4515.597167969 -4515.636718750 -4515.681152344 -4515.734863281 -4515.775878906 -4515.809082031 -4515.829589844 -4515.856445313 -4515.906738281 -4515.945312500 -4515.959960938 -4515.937500000 -4515.869628906 -4515.791503906 -4515.742187500 -4515.744140625 -4515.790527344 -4515.838378906 -4515.852539063 -4515.839843750 -4515.800781250 -4515.771972656 -4515.784179688 -4515.818847656 -4515.863281250 -4515.927246094 -4515.974609375 -4515.984863281 -4515.989746094 -4516.011718750 -4516.023437500 -4516.030761719 -4516.052734375 -4516.099609375 -4516.162597656 -4516.200195313 -4516.212890625 -4516.236328125 -4516.276367188 -4516.325195313 -4516.384765625 -4516.454589844 -4516.520996094 -4516.567382813 -4516.613281250 -4516.668945313 -4516.697753906 -4516.710449219 -4516.714843750 -4516.736328125
-4515.821777344 -4515.772949219 -4515.755859375 -4515.775390625 -4515.813476563 -4515.854003906 -4515.875000000 -4515.851562500 -4515.800292969 -4515.745605469 -4515.693847656 -4515.649414063 -4515.603515625 -4515.583984375 -4515.600585938 -4515.633300781 -4515.672363281 -4515.716796875 -4515.757324219 -4515.795898438 -4515.824707031 -4515.851074219 -4515.892089844 -4515.916503906 -4515.903808594 -4515.860351563 -4515.795410156 -4515.740722656 -4515.721679688 -4515.746582031 -4515.801757813 -4515.848144531 -4515.855468750 -4515.834472656 -4515.782226563 -4515.744628906 -4515.753417969 -4515.783691406 -4515.824707031 -4515.884765625 -4515.933593750 -4515.947265625 -4515.949218750 -4515.952148438 -4515.949707031 -4515.949707031 -4515.944824219 -4515.952148438 -4515.984863281 -4516.015625000 -4516.043945313 -4516.104003906 -4516.185058594 -4516.250000000 -4516.305175781 -4516.354980469 -4516.399414063 -4516.442871094 -4516.495605469 -4516.604980469 -4516.665527344 -4516.664550781 -4516.666503906 -4516.682617188
-4515.758300781 -4515.739746094 -4515.747070313 -4515.786132813 -4515.834960938 -4515.875488281 -4515.898925781 -4515.880859375 -4515.814941406 -4515.739257813 -4515.655273438 -4515.597167969 -4515.573730469 -4515.586425781 -4515.612304688 -4515.651367188 -4515.694824219 -4515.732910156 -4515.766601563 -4515.798339844 -4515.834960938 -4515.878906250 -4515.928710938 -4515.954101563 -4515.924804688 -4515.865722656 -4515.814453125 -4515.791015625 -4515.799316406 -4515.832519531 -4515.872070313 -4515.893554688 -4515.883300781 -4515.847656250 -4515.786132813 -4515.745117188 -4515.750000000 -4515.775878906 -4515.817382813 -4515.875976563 -4515.921875000 -4515.935058594 -4515.934082031 -4515.923339844 -4515.908691406 -4515.894531250 -4515.874023438 -4515.861816406 -4515.864746094 -4515.881347656 -4515.923339844 -4516.010742188 -4516.112792969 -4516.187011719 -4516.240234375 -4516.279785156 -4516.317871094 -4516.367187500 -4516.452148438 -4516.602539063 -4516.678222656 -4516.672363281 -4516.665527344 -4516.667480469
-4515.708496094 -4515.715820313 -4515.750488281 -4515.806152344 -4515.854003906 -4515.882324219 -4515.891601563 -4515.854980469 -4515.789550781 -4515.719238281 -4515.628417969 -4515.567382813 -4515.553710938 -4515.580566406 -4515.620605469 -4515.674316406 -4515.729980469 -4515.769042969 -4515.795898438 -4515.818847656 -4515.857910156 -4515.920898438 -4515.994140625 -4516.032226563 -4516.001464844 -4515.938964844 -4515.897949219 -4515.891601563 -4515.913085938 -4515.941406250 -4515.965820313 -4515.968750000 -4515.942382813 -4515.892578125 -4515.824218750 -4515.777343750 -4515.774414063 -4515.794433594 -4515.832519531 -4515.888183594 -4515.929687500 -4515.932128906 -4515.916015625 -4515.895019531 -4515.873535156 -4515.853515625 -4515.833007813 -4515.818847656 -4515.812011719 -4515.820800781 -4515.860351563 -4515.941894531 -4516.050292969 -4516.136230469 -4516.189941406 -4516.230468750 -4516.286132813 -4516.368164063 -4516.500976563 -4516.662109375 -4516.722656250 -4516.715820313 -4516.709472656 -4516.694824219
-4515.695312500 -4515.715820313 -4515.757812500 -4515.820312500 -4515.863281250 -4515.872558594 -4515.837402344 -4515.797363281 -4515.754882813 -4515.703125000 -4515.643066406 -4515.610839844 -4515.594726563 -4515.604980469 -4515.643066406 -4515.690917969 -4515.750000000 -4515.802734375 -4515.847656250 -4515.888183594 -4515.935058594 -4516.007812500 -4516.105957031 -4516.170898438 -4516.150390625 -4516.092285156 -4516.054199219 -4516.045898438 -4516.067382813 -4516.095214844 -4516.111816406 -4516.102050781 -4516.070800781 -4516.012695313 -4515.924316406 -4515.857421875 -4515.839843750 -4515.850097656 -4515.894531250 -4515.939453125 -4515.960449219 -4515.939453125 -4515.897949219 -4515.862792969 -4515.834472656 -4515.821289063 -4515.815429688 -4515.807128906 -4515.797363281 -4515.799804688 -4515.830566406 -4515.895996094 -4516.006347656 -4516.104003906 -4516.165039063 -4516.216796875 -4516.291015625 -4516.396484375 -4516.538085938 -4516.682617188 -4516.744628906 -4516.754882813 -4516.757324219 -4516.735351563
-4515.771484375 -4515.762695313 -4515.791015625 -4515.836425781 -4515.852539063 -4515.814941406 -4515.775878906 -4515.753417969 -4515.743652344 -4515.740722656 -4515.732421875 -4515.704589844 -4515.682128906 -4515.678222656 -4515.681152344 -4515.708984375 -4515.770507813 -4515.851562500 -4515.950683594 -4516.046386719 -4516.125000000 -4516.219238281 -4516.331054688 -4516.390625000 -4516.376464844 -4516.314453125 -4516.262207031 -4516.246093750 -4516.254394531 -4516.282226563 -4516.305175781 -4516.310058594 -4516.291992188 -4516.225097656 -4516.127929688 -4516.048339844 -4516.000000000 -4515.983398438 -4516.014648438 -4516.045410156 -4516.038574219 -4515.972167969 -4515.878906250 -4515.820312500 -4515.784667969 -4515.775390625 -4515.801757813 -4515.814941406 -4515.805175781 -4515.804687500 -4515.830566406 -4515.897460938 -4516.014160156 -4516.112792969 -4516.174316406 -4516.245605469 -4516.334472656 -4516.431640625 -4516.537109375 -4516.639160156 -4516.707031250 -4516.743164063 -4516.768554688 -4516.769042969
-4515.874511719 -4515.844238281 -4515.817871094 -4515.795898438 -4515.780761719 -4515.743164063 -4515.705566406 -4515.707519531 -4515.755371094 -4515.805175781 -4515.833496094 -4515.816406250 -4515.788574219 -4515.766113281 -4515.752441406 -4515.773437500 -4515.834472656 -4515.935058594 -4516.083496094 -4516.256835938 -4516.395019531 -4516.476074219 -4516.531250000 -4516.559082031 -4516.558593750 -4516.530761719 -4516.504394531 -4516.495117188 -4516.490234375 -4516.496582031 -4516.505371094 -4516.519531250 -4516.520996094 -4516.474609375 -4516.397949219 -4516.313964844 -4516.235351563 -4516.190917969 -4516.186523438 -4516.181152344 -4516.135253906 -4516.007324219 -4515.862304688 -4515.785644531 -4515.760742188 -4515.766601563 -4515.790527344 -4515.795898438 -4515.791503906 -4515.799804688 -4515.836425781 -4515.915039063 -4516.040039063 -4516.139648438 -4516.206542969 -4516.286132813 -4516.367187500 -4516.438964844 -4516.517578125 -4516.598144531 -4516.658203125 -4516.700683594 -4516.731933594 -4516.741699219
-4515.925292969 -4515.876953125 -4515.818847656 -4515.761718750 -4515.733398438 -4515.707031250 -4515.686523438 -4515.711914063 -4515.791992188 -4515.874023438 -4515.919433594 -4515.913085938 -4515.892578125 -4515.873046875 -4515.871582031 -4515.897460938 -4515.958984375 -4516.076171875 -4516.258300781 -4516.463867188 -4516.605468750 -4516.661132813 -4516.674804688 -4516.676269531 -4516.675781250 -4516.672851563 -4516.675781250 -4516.686035156 -4516.687500000 -4516.687011719 -4516.689453125 -4516.702636719 -4516.712890625 -4516.696777344 -4516.658203125 -4516.591796875 -4516.505859375 -4516.436523438 -4516.386230469 -4516.331054688 -4516.239257813 -4516.086425781 -4515.924804688 -4515.823730469 -4515.788085938 -4515.789062500 -4515.790527344 -4515.780761719 -4515.781738281 -4515.800292969 -4515.854003906 -4515.955566406 -4516.080078125 -4516.166503906 -4516.231445313 -4516.305175781 -4516.367187500 -4516.415527344 -4516.477050781 -4516.556152344 -4516.621093750 -4516.666015625 -4516.699707031 -4516.708496094
-4515.904296875 -4515.854980469 -4515.795410156 -4515.748535156 -4515.732910156 -4515.718261719 -4515.708984375 -4515.749511719 -4515.843750000 -4515.940429688 -4515.994140625 -4515.987304688 -4515.986328125 -4516.004882813 -4516.040039063 -4516.086425781 -4516.156738281 -4516.284667969 -4516.461914063 -4516.635253906 -4516.738281250 -4516.770996094 -4516.771484375 -4516.770507813 -4516.777832031 -4516.782226563 -4516.792968750 -4516.818359375 -4516.840332031 -4516.853027344 -4516.857421875 -4516.871582031 -4516.893066406 -4516.898925781 -4516.885742188 -4516.844726563 -4516.770996094 -4516.685058594 -4516.598632813 -4516.502441406 -4516.375000000 -4516.199707031 -4516.020996094 -4515.900390625 -4515.844238281 -4515.825195313 -4515.808105469 -4515.796386719 -4515.800781250 -4515.824707031 -4515.890136719 -4516.000976563 -4516.116210938 -4516.191406250 -4516.241699219 -4516.302734375 -4516.347656250 -4516.375976563 -4516.427734375 -4516.514160156 -4516.591308594 -4516.643066406 -4516.677734375 -4516.682617188
-4515.888183594 -4515.851562500 -4515.804199219 -4515.757812500 -4515.746093750 -4515.729980469 -4515.741699219 -4515.796386719 -4515.891601563 -4515.980957031 -4516.040527344 -4516.044433594 -4516.073730469 -4516.136230469 -4516.201171875 -4516.272460938 -4516.368652344 -4516.496093750 -4516.633300781 -4516.758300781 -4516.826171875 -4516.843750000 -4516.847656250 -4516.861816406 -4516.885742188 -4516.905273438 -4516.927734375 -4516.960937500 -4516.991210938 -4517.008789063 -4517.018066406 -4517.041992188 -4517.077636719 -4517.109375000 -4517.128417969 -4517.096679688 -4517.024902344 -4516.944335938 -4516.843750000 -4516.714355469 -4516.562988281 -4516.369140625 -4516.173339844 -4516.036132813 -4515.954101563 -4515.901855469 -4515.845703125 -4515.827636719 -4515.838378906 -4515.869140625 -4515.935058594 -4516.048339844 -4516.144042969 -4516.198730469 -4516.234863281 -4516.278808594 -4516.307128906 -4516.321777344 -4516.370117188 -4516.472167969 -4516.567382813 -4516.624023438 -4516.655273438 -4516.654785156
-4515.905273438 -4515.892089844 -4515.837402344 -4515.769042969 -4515.743652344 -4515.742187500 -4515.778320313 -4515.859375000 -4515.954589844 -4516.017089844 -4516.062500000 -4516.096191406 -4516.154785156 -4516.250976563 -4516.349609375 -4516.443847656 -4516.550292969 -4516.658203125 -4516.763671875 -4516.854492188 -4516.909667969 -4516.939453125 -4516.950195313 -4516.972167969 -4517.010742188 -4517.040527344 -4517.088378906 -4517.152343750 -4517.185546875 -4517.187500000 -4517.197265625 -4517.230957031 -4517.308105469 -4517.369628906 -4517.360351563 -4517.299316406 -4517.237304688 -4517.185058594 -4517.103515625 -4516.991699219 -4516.844726563 -4516.670898438 -4516.503417969 -4516.337890625 -4516.198730469 -4516.082519531 -4515.962402344 -4515.903320313 -4515.894042969 -4515.924316406 -4516.010253906 -4516.103515625 -4516.163085938 -4516.200195313 -4516.224121094 -4516.250976563 -4516.262207031 -4516.268554688 -4516.318359375 -4516.438964844 -4516.555175781 -4516.613769531 -4516.633300781 -4516.618164063
-4515.954589844 -4515.942871094 -4515.883300781 -4515.790527344 -4515.732421875 -4515.742675781 -4515.815429688 -4515.922851563 -4516.007812500 -4516.041992188 -4516.074707031 -4516.128906250 -4516.215332031 -4516.339355469 -4516.464843750 -4516.564453125 -4516.658203125 -4516.770019531 -4516.891113281 -4516.986816406 -4517.049316406 -4517.073242188 -4517.068847656 -4517.097656250 -4517.148925781 -4517.188476563 -4517.259277344 -4517.345214844 -4517.376464844 -4517.367675781 -4517.371093750 -4517.409179688 -4517.504394531 -4517.572753906 -4517.540527344 -4517.454101563 -4517.385253906 -4517.347167969 -4517.323730469 -4517.277343750 -4517.150390625 -4516.985351563 -4516.833496094 -4516.668945313 -4516.495117188 -4516.321777344 -4516.150390625 -4516.020996094 -4515.954589844 -4515.974609375 -4516.061523438 -4516.144531250 -4516.193847656 -4516.220214844 -4516.234375000 -4516.249023438 -4516.248046875 -4516.242675781 -4516.286132813 -4516.405273438 -4516.521972656 -4516.585449219 -4516.599121094 -4516.578125000
-4516.011718750 -4515.994628906 -4515.926269531 -4515.823242188 -4515.766601563 -4515.812988281 -4515.938964844 -4516.045898438 -4516.097167969 -4516.099121094 -4516.110351563 -4516.165527344 -4516.276855469 -4516.436035156 -4516.574707031 -4516.665527344 -4516.749023438 -4516.857910156 -4516.994628906 -4517.108398438 -4517.186523438 -4517.236328125 -4517.254882813 -4517.287109375 -4517.329101563 -4517.388183594 -4517.472167969 -4517.549316406 -4517.579589844 -4517.572753906 -4517.564941406 -4517.597167969 -4517.694335938 -4517.749023438 -4517.702636719 -4517.605468750 -4517.524902344 -4517.486816406 -4517.478027344 -4517.455566406 -4517.373046875 -4517.241699219 -4517.090332031 -4516.915039063 -4516.720703125 -4516.498535156 -4516.285156250 -4516.113769531 -4516.002441406 -4516.001464844 -4516.095214844 -4516.180175781 -4516.221191406 -4516.241699219 -4516.250000000 -4516.250488281 -4516.235839844 -4516.222167969 -4516.254882813 -4516.355957031 -4516.462402344 -4516.530273438 -4516.549804688 -4516.535156250
-4516.069824219 -4516.038085938 -4515.954589844 -4515.860351563 -4515.840820313 -4515.928710938 -4516.077148438 -4516.180664063 -4516.208496094 -4516.192871094 -4516.190429688 -4516.237304688 -4516.373046875 -4516.575683594 -4516.718750000 -4516.796875000 -4516.867675781 -4516.984863281 -4517.152832031 -4517.286621094 -4517.373535156 -4517.451660156 -4517.519531250 -4517.573730469 -4517.606445313 -4517.659667969 -4517.741699219 -4517.792480469 -4517.819824219 -4517.820312500 -4517.818359375 -4517.870117188 -4517.944335938 -4517.959960938 -4517.901855469 -4517.792480469 -4517.692871094 -4517.637695313 -4517.613769531 -4517.581054688 -4517.509765625 -4517.403808594 -4517.277832031 -4517.107910156 -4516.882812500 -4516.630371094 -4516.393554688 -4516.198730469 -4516.066894531 -4516.041015625 -4516.114746094 -4516.198242188 -4516.239746094 -4516.259277344 -4516.262695313 -4516.237792969 -4516.209472656 -4516.199218750 -4516.217285156 -4516.302246094 -4516.405761719 -4516.474121094 -4516.499023438 -4516.497558594
-4516.126953125 -4516.061035156 -4515.959472656 -4515.897949219 -4515.925292969 -4516.045898438 -4516.195312500 -4516.283203125 -4516.294921875 -4516.283691406 -4516.292968750 -4516.350097656 -4516.500976563 -4516.732910156 -4516.896972656 -4516.991699219 -4517.081542969 -4517.242675781 -4517.395019531 -4517.465820313 -4517.516601563 -4517.571777344 -4517.654296875 -4517.743652344 -4517.811035156 -4517.874023438 -4517.944824219 -4518.002441406 -4518.054687500 -4518.076171875 -4518.074218750 -4518.107421875 -4518.149902344 -4518.164062500 -4518.129882813 -4518.046875000 -4517.947753906 -4517.865234375 -4517.783691406 -4517.694335938 -4517.611816406 -4517.534667969 -4517.436523438 -4517.268554688 -4517.026855469 -4516.757324219 -4516.499023438 -4516.278808594 -4516.122070313 -4516.062011719 -4516.105468750 -4516.192382813 -4516.244140625 -4516.262695313 -4516.250000000 -4516.204589844 -4516.167968750 -4516.156250000 -4516.162597656 -4516.228027344 -4516.332519531 -4516.404296875 -4516.441894531 -4516.462890625
-4516.121093750 -4516.012695313 -4515.910644531 -4515.927734375 -4516.020996094 -4516.139160156 -4516.254394531 -4516.333496094 -4516.364257813 -4516.384277344 -4516.437988281 -4516.547363281 -4516.707519531 -4516.898437500 -4517.087402344 -4517.226562500 -4517.327148438 -4517.456054688 -4517.573730469 -4517.628906250 -4517.642089844 -4517.659179688 -4517.715332031 -4517.802734375 -4517.889160156 -4517.965820313 -4518.041503906 -4518.109375000 -4518.187988281 -4518.252929688 -4518.282714844 -4518.303710938 -4518.318359375 -4518.312011719 -4518.284179688 -4518.223144531 -4518.139648438 -4518.049316406 -4517.945312500 -4517.845214844 -4517.767089844 -4517.698730469 -4517.601562500 -4517.423339844 -4517.140625000 -4516.842285156 -4516.580078125 -4516.370605469 -4516.219726563 -4516.135253906 -4516.119628906 -4516.155273438 -4516.203613281 -4516.230468750 -4516.186523438 -4516.122070313 -4516.091796875 -4516.089843750 -4516.103515625 -4516.154785156 -4516.238281250 -4516.305664063 -4516.355468750 -4516.407714844
-4516.006347656 -4515.837402344 -4515.834472656 -4515.945800781 -4516.060058594 -4516.162109375 -4516.260253906 -4516.349121094 -4516.419433594 -4516.480468750 -4516.570312500 -4516.696289063 -4516.834472656 -4517.000488281 -4517.187011719 -4517.329101563 -4517.448730469 -4517.569824219 -4517.673828125 -4517.730468750 -4517.748535156 -4517.748535156 -4517.767578125 -4517.842285156 -4517.940917969 -4518.024414063 -4518.089355469 -4518.150878906 -4518.238769531 -4518.323242188 -4518.368652344 -4518.389160156 -4518.393066406 -4518.383300781 -4518.370605469 -4518.343750000 -4518.296875000 -4518.233398438 -4518.163085938 -4518.061035156 -4517.965820313 -4517.894042969 -4517.766113281 -4517.530761719 -4517.210937500 -4516.903320313 -4516.648925781 -4516.458984375 -4516.330566406 -4516.244628906 -4516.187988281 -4516.173339844 -4516.192382813 -4516.212890625 -4516.159179688 -4516.083984375 -4516.052734375 -4516.056152344 -4516.070312500 -4516.100585938 -4516.141601563 -4516.191894531 -4516.263183594 -4516.346679688
-4515.840332031 -4515.723632813 -4515.766601563 -4515.927246094 -4516.070312500 -4516.170898438 -4516.261230469 -4516.359863281 -4516.466308594 -4516.566406250 -4516.676269531 -4516.792480469 -4516.911621094 -4517.053710938 -4517.213378906 -4517.369140625 -4517.517578125 -4517.626953125 -4517.704101563 -4517.749511719 -4517.769531250 -4517.778320313 -4517.801757813 -4517.877441406 -4517.983886719 -4518.077636719 -4518.141601563 -4518.180664063 -4518.239746094 -4518.312988281 -4518.360839844 -4518.384765625 -4518.395507813 -4518.408203125 -4518.430175781 -4518.439941406 -4518.417968750 -4518.356933594 -4518.303222656 -4518.254394531 -4518.214355469 -4518.151855469 -4517.969238281 -4517.670410156 -4517.320312500 -4516.996582031 -4516.729003906 -4516.543945313 -4516.430175781 -4516.345214844 -4516.282226563 -4516.250976563 -4516.249511719 -4516.244140625 -4516.168457031 -4516.080078125 -4516.038574219 -4516.038574219 -4516.052734375 -4516.090820313 -4516.118652344 -4516.145019531 -4516.211914063 -4516.297363281
-4515.652832031 -4515.646484375 -4515.750488281 -4515.927246094 -4516.079589844 -4516.189453125 -4516.287597656 -4516.406250000 -4516.559082031 -4516.676269531 -4516.776367188 -4516.866699219 -4516.965820313 -4517.091796875 -4517.227539063 -4517.384277344 -4517.540039063 -4517.641113281 -4517.704101563 -4517.744628906 -4517.771972656 -4517.794433594 -4517.835937500 -4517.926757813 -4518.040039063 -4518.137695313 -4518.207031250 -4518.243164063 -4518.260742188 -4518.297363281 -4518.339355469 -4518.352539063 -4518.350585938 -4518.362792969 -4518.406738281 -4518.451660156 -4518.461425781 -4518.438964844 -4518.415527344 -4518.387207031 -4518.363281250 -4518.313476563 -4518.152343750 -4517.833496094 -4517.462402344 -4517.113769531 -4516.842285156 -4516.673828125 -4516.560546875 -4516.470703125 -4516.397949219 -4516.341308594 -4516.310058594 -4516.269042969 -4516.182617188 -4516.096191406 -4516.051269531 -4516.041992188 -4516.070312500 -4516.116210938 -4516.130859375 -4516.138671875 -4516.170898438 -4516.217773438
-4515.580566406 -4515.636230469 -4515.776367188 -4515.967285156 -4516.130859375 -4516.254882813 -4516.362304688 -4516.502929688 -4516.683105469 -4516.798339844 -4516.875000000 -4516.933593750 -4517.001953125 -4517.108398438 -4517.243652344 -4517.399414063 -4517.544921875 -4517.633789063 -4517.691406250 -4517.735351563 -4517.781738281 -4517.832031250 -4517.915527344 -4518.052734375 -4518.169433594 -4518.234375000 -4518.276367188 -4518.302734375 -4518.304199219 -4518.301757813 -4518.305664063 -4518.300781250 -4518.295898438 -4518.330078125 -4518.389648438 -4518.446289063 -4518.476074219 -4518.472656250 -4518.458496094 -4518.437011719 -4518.407714844 -4518.359863281 -4518.217285156 -4517.936035156 -4517.594238281 -4517.296875000 -4517.044921875 -4516.847167969 -4516.706054688 -4516.606445313 -4516.526855469 -4516.447265625 -4516.380371094 -4516.309570313 -4516.206054688 -4516.115722656 -4516.070312500 -4516.057617188 -4516.085937500 -4516.130371094 -4516.147949219 -4516.137695313 -4516.119628906 -4516.115722656
-4515.655273438 -4515.716308594 -4515.856445313 -4516.064941406 -4516.256835938 -4516.410644531 -4516.532226563 -4516.647460938 -4516.762207031 -4516.865722656 -4516.947753906 -4517.007812500 -4517.071777344 -4517.153808594 -4517.281250000 -4517.450195313 -4517.562011719 -4517.615722656 -4517.661621094 -4517.723144531 -4517.814453125 -4517.930175781 -4518.073242188 -4518.243164063 -4518.362304688 -4518.395019531 -4518.385253906 -4518.371093750 -4518.371582031 -4518.349121094 -4518.301757813 -4518.273925781 -4518.277832031 -4518.326171875 -4518.410156250 -4518.476074219 -4518.504882813 -4518.510742188 -4518.501464844 -4518.455078125 -4518.393554688 -4518.324218750 -4518.179199219 -4517.955566406 -4517.704589844 -4517.467285156 -4517.225585938 -4517.005371094 -4516.840332031 -4516.741210938 -4516.678710938 -4516.604980469 -4516.509277344 -4516.379394531 -4516.229980469 -4516.131347656 -4516.090332031 -4516.083496094 -4516.109375000 -4516.140136719 -4516.145996094 -4516.091796875 -4516.024902344 -4515.977539063
-4515.761718750 -4515.836425781 -4515.975585938 -4516.154785156 -4516.334960938 -4516.482421875 -4516.597167969 -4516.698730469 -4516.803710938 -4516.904785156 -4516.992675781 -4517.066406250 -4517.139160156 -4517.213867188 -4517.337402344 -4517.484863281 -4517.588378906 -4517.645996094 -4517.699218750 -4517.786132813 -4517.915527344 -4518.064941406 -4518.209960938 -4518.327148438 -4518.421875000 -4518.478027344 -4518.497070313 -4518.486816406 -4518.483398438 -4518.474121094 -4518.427246094 -4518.375000000 -4518.348632813 -4518.368652344 -4518.438964844 -4518.496582031 -4518.512207031 -4518.511718750 -4518.507324219 -4518.491699219 -4518.435546875 -4518.327636719 -4518.132324219 -4517.931152344 -4517.768554688 -4517.589355469 -4517.370117188 -4517.135742188 -4516.948730469 -4516.840820313 -4516.780273438 -4516.714843750 -4516.611328125 -4516.452636719 -4516.271972656 -4516.146484375 -4516.087890625 -4516.077148438 -4516.105468750 -4516.127441406 -4516.117675781 -4516.045898438 -4515.932617188 -4515.848144531
-4515.828613281 -4515.898925781 -4516.031738281 -4516.207519531 -4516.370117188 -4516.503906250 -4516.612304688 -4516.712402344 -4516.821289063 -4516.926757813 -4517.028320313 -4517.128906250 -4517.199707031 -4517.259765625 -4517.359375000 -4517.502929688 -4517.622558594 -4517.704101563 -4517.766601563 -4517.867187500 -4518.017089844 -4518.169433594 -4518.296386719 -4518.375000000 -4518.433593750 -4518.498046875 -4518.542968750 -4518.533203125 -4518.536621094 -4518.579101563 -4518.600585938 -4518.585937500 -4518.540039063 -4518.515625000 -4518.541015625 -4518.555175781 -4518.539062500 -4518.531250000 -4518.518554688 -4518.511718750 -4518.468750000 -4518.300292969 -4518.083496094 -4517.914550781 -4517.792968750 -4517.664550781 -4517.484863281 -4517.253906250 -4517.053222656 -4516.941406250 -4516.880859375 -4516.819335938 -4516.718261719 -4516.542480469 -4516.321289063 -4516.148437500 -4516.056640625 -4516.041015625 -4516.076171875 -4516.104492188 -4516.082031250 -4515.996582031 -4515.882324219 -4515.800292969
-4515.854492188 -4515.921875000 -4516.040039063 -4516.205566406 -4516.370117188 -4516.504394531 -4516.618164063 -4516.729980469 -4516.847656250 -4516.967773438 -4517.089355469 -4517.191406250 -4517.258300781 -4517.315917969 -4517.418457031 -4517.584472656 -4517.727539063 -4517.812011719 -4517.854003906 -4517.937011719 -4518.069824219 -4518.197753906 -4518.296386719 -4518.350097656 -4518.425781250 -4518.512695313 -4518.541015625 -4518.515625000 -4518.548339844 -4518.666503906 -4518.776855469 -4518.814453125 -4518.755859375 -4518.697265625 -4518.683593750 -4518.655273438 -4518.621093750 -4518.605468750 -4518.576660156 -4518.550781250 -4518.479003906 -4518.299316406 -4518.097656250 -4517.939453125 -4517.830566406 -4517.731445313 -4517.589843750 -4517.387695313 -4517.196289063 -4517.079589844 -4517.008300781 -4516.937500000 -4516.833496094 -4516.648437500 -4516.372070313 -4516.128417969 -4516.000976563 -4515.976562500 -4516.015625000 -4516.048828125 -4516.015136719 -4515.925781250 -4515.834472656 -4515.777343750
-4515.814941406 -4515.893554688 -4516.007324219 -4516.164062500 -4516.339843750 -4516.502441406 -4516.641601563 -4516.777343750 -4516.916503906 -4517.055664063 -4517.175781250 -4517.268554688 -4517.330078125 -4517.379394531 -4517.482421875 -4517.665527344 -4517.818847656 -4517.894531250 -4517.930175781 -4517.982421875 -4518.072265625 -4518.165527344 -4518.239746094 -4518.322265625 -4518.444335938 -4518.532226563 -4518.555175781 -4518.602539063 -4518.732421875 -4518.893066406 -4519.009765625 -4519.044921875 -4518.995117188 -4518.922363281 -4518.858886719 -4518.783203125 -4518.715332031 -4518.675292969 -4518.639160156 -4518.597167969 -4518.490234375 -4518.309570313 -4518.144042969 -4518.018554688 -4517.923339844 -4517.845703125 -4517.739257813 -4517.593750000 -4517.403320313 -4517.242675781 -4517.142578125 -4517.041503906 -4516.903808594 -4516.690917969 -4516.395507813 -4516.106445313 -4515.934570313 -4515.894042969 -4515.938964844 -4515.967773438 -4515.936035156 -4515.875000000 -4515.814453125 -4515.780761719
-4515.812988281 -4515.873535156 -4515.951171875 -4516.100585938 -4516.297363281 -4516.510253906 -4516.699218750 -4516.871582031 -4517.036621094 -4517.167480469 -4517.273437500 -4517.351074219 -4517.395996094 -4517.457031250 -4517.596679688 -4517.778320313 -4517.910644531 -4517.989257813 -4518.021972656 -4518.035644531 -4518.081054688 -4518.134277344 -4518.200195313 -4518.316894531 -4518.448730469 -4518.545898438 -4518.625000000 -4518.753417969 -4518.963378906 -4519.143066406 -4519.220703125 -4519.225585938 -4519.179199219 -4519.095703125 -4519.020996094 -4518.944824219 -4518.868164063 -4518.798828125 -4518.699707031 -4518.577148438 -4518.455078125 -4518.332031250 -4518.220214844 -4518.135253906 -4518.071777344 -4518.003417969 -4517.904296875 -4517.777832031 -4517.598632813 -4517.417480469 -4517.276855469 -4517.126464844 -4516.927734375 -4516.700195313 -4516.409667969 -4516.113281250 -4515.944335938 -4515.885253906 -4515.879394531 -4515.882324219 -4515.872070313 -4515.854003906 -4515.827636719 -4515.819824219
-4515.812500000 -4515.849121094 -4515.891601563 -4516.010253906 -4516.210937500 -4516.464843750 -4516.729980469 -4516.953125000 -4517.116699219 -4517.232910156 -4517.320800781 -4517.391113281 -4517.446289063 -4517.546386719 -4517.717773438 -4517.872070313 -4517.974609375 -4518.052246094 -4518.073730469 -4518.056152344 -4518.078125000 -4518.124023438 -4518.222656250 -4518.370117188 -4518.495605469 -4518.581542969 -4518.686035156 -4518.855468750 -4519.065917969 -4519.221679688 -4519.290039063 -4519.299804688 -4519.276367188 -4519.216308594 -4519.144531250 -4519.072753906 -4519.002929688 -4518.925781250 -4518.766113281 -4518.588867188 -4518.456054688 -4518.369140625 -4518.307128906 -4518.248535156 -4518.187011719 -4518.101562500 -4517.977539063 -4517.851074219 -4517.665527344 -4517.469238281 -4517.315429688 -4517.153808594 -4516.935058594 -4516.684570313 -4516.404296875 -4516.143066406 -4515.979492188 -4515.911621094 -4515.871582031 -4515.850097656 -4515.842773438 -4515.828613281 -4515.817382813 -4515.823730469
-4515.810058594 -4515.821777344 -4515.859863281 -4515.976562500 -4516.173828125 -4516.417968750 -4516.668945313 -4516.891601563 -4517.083496094 -4517.210449219 -4517.304687500 -4517.386718750 -4517.484863281 -4517.620605469 -4517.741699219 -4517.856445313 -4517.990722656 -4518.077148438 -4518.118652344 -4518.132812500 -4518.140136719 -4518.176757813 -4518.292968750 -4518.458496094 -4518.587890625 -4518.680664063 -4518.811523438 -4518.966308594 -4519.115722656 -4519.228027344 -4519.285156250 -4519.302246094 -4519.298828125 -4519.264648438 -4519.195800781 -4519.079589844 -4518.973632813 -4518.889648438 -4518.766601563 -4518.622558594 -4518.502929688 -4518.422851563 -4518.369628906 -4518.331542969 -4518.277343750 -4518.188476563 -4518.052246094 -4517.901855469 -4517.683105469 -4517.464355469 -4517.281738281 -4517.108398438 -4516.910156250 -4516.674804688 -4516.402832031 -4516.156738281 -4516.000000000 -4515.933105469 -4515.890136719 -4515.851562500 -4515.827636719 -4515.810058594 -4515.797363281 -4515.809570313
-4515.834960938 -4515.815917969 -4515.847167969 -4515.968261719 -4516.174804688 -4516.410644531 -4516.614746094 -4516.800781250 -4516.993652344 -4517.148437500 -4517.260253906 -4517.361816406 -4517.498046875 -4517.657226563 -4517.750976563 -4517.836914063 -4517.968750000 -4518.048339844 -4518.104492188 -4518.165527344 -4518.237304688 -4518.343261719 -4518.474121094 -4518.591796875 -4518.699707031 -4518.813964844 -4518.924804688 -4519.026367188 -4519.133789063 -4519.231933594 -4519.294433594 -4519.322753906 -4519.330078125 -4519.282714844 -4519.173828125 -4519.036132813 -4518.926269531 -4518.842285156 -4518.716796875 -4518.601074219 -4518.514648438 -4518.459960938 -4518.443359375 -4518.423828125 -4518.354492188 -4518.249023438 -4518.102050781 -4517.913574219 -4517.681152344 -4517.460937500 -4517.273437500 -4517.091308594 -4516.883300781 -4516.645019531 -4516.372558594 -4516.131347656 -4516.003906250 -4515.945800781 -4515.888671875 -4515.853027344 -4515.833007813 -4515.803222656 -4515.789550781 -4515.802734375
-4515.820800781 -4515.782714844 -4515.819335938 -4515.950683594 -4516.154785156 -4516.364746094 -4516.535644531 -4516.694824219 -4516.869628906 -4517.022460938 -4517.167480469 -4517.319824219 -4517.537597656 -4517.743652344 -4517.793945313 -4517.830566406 -4517.919433594 -4517.978515625 -4518.060546875 -4518.216796875 -4518.368652344 -4518.518554688 -4518.651855469 -4518.731445313 -4518.801757813 -4518.890625000 -4518.984863281 -4519.074707031 -4519.150390625 -4519.207031250 -4519.258300781 -4519.287597656 -4519.283691406 -4519.232421875 -4519.125000000 -4518.991699219 -4518.879394531 -4518.794433594 -4518.683105469 -4518.575195313 -4518.507812500 -4518.466796875 -4518.436035156 -4518.418457031 -4518.391113281 -4518.253906250 -4518.054687500 -4517.848144531 -4517.635742188 -4517.430664063 -4517.235351563 -4517.037109375 -4516.803710938 -4516.525878906 -4516.262207031 -4516.080078125 -4515.982421875 -4515.937011719 -4515.881835938 -4515.845214844 -4515.829101563 -4515.811523438 -4515.810546875 -4515.824218750
-4515.819335938 -4515.774902344 -4515.818359375 -4515.963867188 -4516.171875000 -4516.331054688 -4516.446777344 -4516.577636719 -4516.735351563 -4516.885742188 -4517.077636719 -4517.339843750 -4517.583496094 -4517.719726563 -4517.762695313 -4517.809082031 -4517.901367188 -4517.997070313 -4518.100097656 -4518.235351563 -4518.415039063 -4518.587890625 -4518.705078125 -4518.795898438 -4518.864746094 -4518.949707031 -4519.041992188 -4519.100097656 -4519.122070313 -4519.141113281 -4519.171386719 -4519.169921875 -4519.126464844 -4519.077148438 -4519.025878906 -4518.956542969 -4518.870605469 -4518.763183594 -4518.627929688 -4518.497558594 -4518.394531250 -4518.336425781 -4518.314941406 -4518.320800781 -4518.293945313 -4518.268066406 -4518.161132813 -4517.875976563 -4517.586425781 -4517.362792969 -4517.158691406 -4516.891113281 -4516.565429688 -4516.269531250 -4516.067871094 -4515.971191406 -4515.934570313 -4515.916015625 -4515.885253906 -4515.854003906 -4515.840332031 -4515.845214844 -4515.856445313 -4515.864746094
-4515.812988281 -4515.762207031 -4515.811523438 -4515.958496094 -4516.126464844 -4516.252929688 -4516.359863281 -4516.486816406 -4516.636718750 -4516.781738281 -4516.981445313 -4517.288085938 -4517.592285156 -4517.741210938 -4517.785156250 -4517.845214844 -4517.937988281 -4518.020019531 -4518.104980469 -4518.216796875 -4518.375000000 -4518.553710938 -4518.696777344 -4518.802734375 -4518.876953125 -4518.963867188 -4519.053710938 -4519.080078125 -4519.049804688 -4519.037109375 -4519.066894531 -4519.070312500 -4519.033691406 -4518.992187500 -4518.952636719 -4518.923339844 -4518.853027344 -4518.744140625 -4518.610839844 -4518.469726563 -4518.337890625 -4518.239746094 -4518.198730469 -4518.200683594 -4518.187500000 -4518.147949219 -4518.033203125 -4517.786621094 -4517.531738281 -4517.329101563 -4517.111328125 -4516.759277344 -4516.328613281 -4516.025390625 -4515.903320313 -4515.895507813 -4515.911621094 -4515.907226563 -4515.883789063 -4515.866210938 -4515.865234375 -4515.880371094 -4515.904296875 -4515.902832031
-4515.833496094 -4515.765136719 -4515.797851563 -4515.919433594 -4516.051757813 -4516.151367188 -4516.250976563 -4516.386718750 -4516.554199219 -4516.702148438 -4516.893554688 -4517.193359375 -4517.491699219 -4517.683593750 -4517.787109375 -4517.871582031 -4517.963867188 -4518.029296875 -4518.076660156 -4518.154785156 -4518.298339844 -4518.473632813 -4518.642089844 -4518.780761719 -4518.875976563 -4518.952148438 -4518.985839844 -4518.956054688 -4518.880859375 -4518.825683594 -4518.843750000 -4518.891601563 -4518.913574219 -4518.918945313 -4518.909667969 -4518.890136719 -4518.836425781 -4518.738281250 -4518.604980469 -4518.438964844 -4518.296386719 -4518.203613281 -4518.154785156 -4518.161132813 -4518.142089844 -4518.031738281 -4517.877441406 -4517.670410156 -4517.441406250 -4517.231933594 -4516.988281250 -4516.614257813 -4516.203613281 -4515.928710938 -4515.849609375 -4515.887695313 -4515.916992188 -4515.907226563 -4515.866699219 -4515.836914063 -4515.848632813 -4515.885253906 -4515.907226563 -4515.897460938
-4515.904296875 -4515.817382813 -4515.810058594 -4515.889160156 -4515.999023438 -4516.069335938 -4516.155273438 -4516.279296875 -4516.432128906 -4516.570312500 -4516.732421875 -4516.966796875 -4517.250488281 -4517.540527344 -4517.749511719 -4517.882324219 -4517.980468750 -4518.040039063 -4518.080078125 -4518.159667969 -4518.271484375 -4518.388183594 -4518.538574219 -4518.691894531 -4518.798339844 -4518.853027344 -4518.843261719 -4518.782714844 -4518.723632813 -4518.706542969 -4518.736816406 -4518.781738281 -4518.812988281 -4518.838867188 -4518.850097656 -4518.860839844 -4518.830566406 -4518.753417969 -4518.622070313 -4518.430664063 -4518.247070313 -4518.135253906 -4518.102539063 -4518.122070313 -4518.096679688 -4517.979003906 -4517.807128906 -4517.588867188 -4517.340332031 -4517.109863281 -4516.843750000 -4516.479492188 -4516.136230469 -4515.936523438 -4515.885742188 -4515.902343750 -4515.906738281 -4515.885742188 -4515.850097656 -4515.836425781 -4515.858886719 -4515.897460938 -4515.912597656 -4515.904785156
-4516.096679688 -4515.966308594 -4515.881347656 -4515.905761719 -4515.938964844 -4515.976562500 -4516.048339844 -4516.171386719 -4516.301269531 -4516.428710938 -4516.567871094 -4516.737792969 -4517.011718750 -4517.379394531 -4517.689941406 -4517.880859375 -4517.972656250 -4518.010742188 -4518.050292969 -4518.107910156 -4518.187988281 -4518.277832031 -4518.372070313 -4518.478515625 -4518.562988281 -4518.605957031 -4518.615722656 -4518.594726563 -4518.572753906 -4518.579101563 -4518.620605469 -4518.670410156 -4518.706542969 -4518.716796875 -4518.729980469 -4518.742675781 -4518.771972656 -4518.778320313 -4518.679199219 -4518.508789063 -4518.309082031 -4518.144042969 -4518.059570313 -4518.000976563 -4517.951660156 -4517.848144531 -4517.647949219 -4517.434570313 -4517.190917969 -4516.929199219 -4516.659667969 -4516.352539063 -4516.131835938 -4516.032226563 -4515.961425781 -4515.898925781 -4515.843261719 -4515.775390625 -4515.769531250 -4515.826660156 -4515.869140625 -4515.893554688 -4515.898925781 -4515.910644531
-4516.172851563 -4516.048339844 -4515.934570313 -4515.901855469 -4515.896972656 -4515.891601563 -4515.947265625 -4516.062988281 -4516.227539063 -4516.356933594 -4516.478515625 -4516.629394531 -4516.888183594 -4517.263671875 -4517.614746094 -4517.840332031 -4517.915039063 -4517.931152344 -4517.975585938 -4518.044433594 -4518.129394531 -4518.208984375 -4518.269042969 -4518.328613281 -4518.389648438 -4518.449707031 -4518.496093750 -4518.513183594 -4518.519042969 -4518.523437500 -4518.526367188 -4518.532714844 -4518.554199219 -4518.590820313 -4518.635253906 -4518.663574219 -4518.674316406 -4518.703125000 -4518.671875000 -4518.539062500 -4518.357910156 -4518.178222656 -4518.030273438 -4517.888183594 -4517.745117188 -4517.594726563 -4517.428222656 -4517.253417969 -4517.026855469 -4516.771972656 -4516.513671875 -4516.277343750 -4516.142089844 -4516.080078125 -4516.002441406 -4515.884277344 -4515.785156250 -4515.740234375 -4515.785644531 -4515.849609375 -4515.876953125 -4515.879394531 -4515.878906250 -4515.917480469
-4516.205566406 -4516.090332031 -4515.957031250 -4515.866699219 -4515.874511719 -4515.915527344 -4515.968261719 -4516.077636719 -4516.204589844 -4516.318359375 -4516.437500000 -4516.574707031 -4516.783203125 -4517.097656250 -4517.465332031 -4517.742675781 -4517.833007813 -4517.841796875 -4517.873535156 -4517.932128906 -4518.041992188 -4518.151855469 -4518.198730469 -4518.214355469 -4518.251464844 -4518.333007813 -4518.430175781 -4518.488281250 -4518.505371094 -4518.489257813 -4518.451171875 -4518.416992188 -4518.426269531 -4518.464843750 -4518.512207031 -4518.505859375 -4518.513183594 -4518.599609375 -4518.642578125 -4518.565429688 -4518.407714844 -4518.219238281 -4518.014160156 -4517.777343750 -4517.555175781 -4517.375976563 -4517.216796875 -4517.075195313 -4516.898437500 -4516.671875000 -4516.437988281 -4516.244628906 -4516.143554688 -4516.072753906 -4515.980468750 -4515.862792969 -4515.775878906 -4515.749023438 -4515.811523438 -4515.894042969 -4515.927246094 -4515.927734375 -4515.927734375 -4515.988281250
-4516.176757813 -4516.104980469 -4516.009277344 -4515.905761719 -4515.895507813 -4515.941894531 -4516.005859375 -4516.087402344 -4516.203125000 -4516.309570313 -4516.412597656 -4516.524414063 -4516.666015625 -4516.896484375 -4517.222656250 -4517.519531250 -4517.661132813 -4517.693847656 -4517.730957031 -4517.768066406 -4517.841308594 -4517.958007813 -4518.070800781 -4518.121093750 -4518.150878906 -4518.237304688 -4518.357421875 -4518.443847656 -4518.465332031 -4518.416503906 -4518.344726563 -4518.300781250 -4518.297851563 -4518.334472656 -4518.341308594 -4518.315917969 -4518.329101563 -4518.417968750 -4518.519042969 -4518.518066406 -4518.402832031 -4518.218750000 -4517.990234375 -4517.676757813 -4517.368164063 -4517.176757813 -4517.049316406 -4516.939453125 -4516.804687500 -4516.600585938 -4516.364257813 -4516.211425781 -4516.121093750 -4516.035156250 -4515.937011719 -4515.834960938 -4515.784667969 -4515.793457031 -4515.866210938 -4515.940429688 -4515.965820313 -4515.974121094 -4516.002929688 -4516.066894531
-4516.170898438 -4516.126953125 -4516.068359375 -4516.020996094 -4516.007812500 -4516.035644531 -4516.068847656 -4516.130371094 -4516.228027344 -4516.307128906 -4516.388671875 -4516.479492188 -4516.592773438 -4516.763671875 -4516.995605469 -4517.223632813 -4517.346191406 -4517.447753906 -4517.558105469 -4517.623046875 -4517.702148438 -4517.782714844 -4517.873046875 -4517.968750000 -4518.058593750 -4518.166015625 -4518.272460938 -4518.350097656 -4518.368652344 -4518.311035156 -4518.211914063 -4518.144042969 -4518.139160156 -4518.198730469 -4518.222656250 -4518.130371094 -4518.115234375 -4518.202636719 -4518.291503906 -4518.324218750 -4518.271972656 -4518.136718750 -4517.911132813 -4517.558105469 -4517.237304688 -4517.064453125 -4516.984863281 -4516.907714844 -4516.756835938 -4516.520507813 -4516.278320313 -4516.152343750 -4516.074218750 -4515.996093750 -4515.929687500 -4515.878906250 -4515.869628906 -4515.903808594 -4515.956542969 -4516.005371094 -4516.013671875 -4516.033203125 -4516.104003906 -4516.157226563
-4516.197753906 -4516.174316406 -4516.156738281 -4516.147460938 -4516.124023438 -4516.120605469 -4516.131347656 -4516.163574219 -4516.216308594 -4516.283691406 -4516.358398438 -4516.433105469 -4516.526855469 -4516.657226563 -4516.815917969 -4516.984375000 -4517.117187500 -4517.231933594 -4517.379394531 -4517.535644531 -4517.639648438 -4517.707519531 -4517.766113281 -4517.840820313 -4517.937988281 -4518.033691406 -4518.118164063 -4518.183105469 -4518.188964844 -4518.135742188 -4518.046875000 -4517.989257813 -4518.018554688 -4518.081054688 -4518.091796875 -4518.045410156 -4517.999511719 -4517.977539063 -4517.997070313 -4518.037109375 -4518.043457031 -4517.977050781 -4517.796875000 -4517.470703125 -4517.188964844 -4517.044433594 -4516.975585938 -4516.908691406 -4516.739746094 -4516.477539063 -4516.215820313 -4516.076660156 -4516.002929688 -4515.946777344 -4515.925292969 -4515.925781250 -4515.945800781 -4515.974609375 -4516.004882813 -4516.041992188 -4516.073242188 -4516.123535156 -4516.194824219 -4516.226074219
-4516.242187500 -4516.212890625 -4516.196777344 -4516.184570313 -4516.158203125 -4516.152832031 -4516.151855469 -4516.146972656 -4516.162109375 -4516.221679688 -4516.300781250 -4516.381835938 -4516.468750000 -4516.566406250 -4516.682617188 -4516.824707031 -4516.965332031 -4517.117187500 -4517.306152344 -4517.491699219 -4517.606933594 -4517.665527344 -4517.710449219 -4517.770996094 -4517.844238281 -4517.916992188 -4517.971679688 -4517.995117188 -4517.964843750 -4517.894042969 -4517.823242188 -4517.809082031 -4517.871093750 -4517.957519531 -4517.990234375 -4517.944824219 -4517.862792969 -4517.769531250 -4517.742187500 -4517.796386719 -4517.864257813 -4517.867187500 -4517.727539063 -4517.444824219 -4517.193847656 -4517.040039063 -4516.951171875 -4516.857421875 -4516.681152344 -4516.427246094 -4516.182128906 -4516.028808594 -4515.937500000 -4515.891601563 -4515.902343750 -4515.937500000 -4515.976074219 -4516.002441406 -4516.020507813 -4516.045898438 -4516.100097656 -4516.191894531 -4516.247070313 -4516.244628906
-4516.262695313 -4516.208496094 -4516.180664063 -4516.179687500 -4516.167480469 -4516.165527344 -4516.145507813 -4516.097656250 -4516.064453125 -4516.116210938 -4516.208007813 -4516.316894531 -4516.421875000 -4516.509765625 -4516.595214844 -4516.710449219 -4516.848632813 -4517.013671875 -4517.234375000 -4517.445800781 -4517.570800781 -4517.629394531 -4517.666015625 -4517.731445313 -4517.804199219 -4517.843261719 -4517.848144531 -4517.803710938 -4517.721191406 -4517.647949219 -4517.614257813 -4517.644531250 -4517.729492188 -4517.831054688 -4517.877441406 -4517.837890625 -4517.731933594 -4517.611816406 -4517.544921875 -4517.557128906 -4517.666015625 -4517.719726563 -4517.601074219 -4517.370117188 -4517.162597656 -4517.010742188 -4516.902832031 -4516.794921875 -4516.605468750 -4516.376953125 -4516.172851563 -4516.015136719 -4515.894531250 -4515.836914063 -4515.861328125 -4515.921386719 -4515.971191406 -4516.000488281 -4516.022949219 -4516.058593750 -4516.118164063 -4516.207519531 -4516.245605469 -4516.227050781
-4516.259765625 -4516.181640625 -4516.137695313 -4516.131835938 -4516.124023438 -4516.102539063 -4516.079101563 -4516.016113281 -4515.953125000 -4515.974609375 -4516.067871094 -4516.204589844 -4516.341308594 -4516.443359375 -4516.519531250 -4516.607421875 -4516.729003906 -4516.884765625 -4517.098632813 -4517.327636719 -4517.468261719 -4517.531738281 -4517.565429688 -4517.630371094 -4517.707519531 -4517.725097656 -4517.679687500 -4517.588378906 -4517.498046875 -4517.450683594 -4517.460449219 -4517.531250000 -4517.623535156 -4517.713867188 -4517.758789063 -4517.719238281 -4517.607910156 -4517.481933594 -4517.401855469 -4517.399414063 -4517.463378906 -4517.514648438 -4517.448730469 -4517.268066406 -4517.079101563 -4516.926757813 -4516.809082031 -4516.703125000 -4516.571289063 -4516.401367188 -4516.201660156 -4516.038574219 -4515.916015625 -4515.840820313 -4515.836425781 -4515.904785156 -4515.974121094 -4516.009277344 -4516.034179688 -4516.073242188 -4516.132324219 -4516.190429688 -4516.206054688 -4516.180175781
-4516.228027344 -4516.139648438 -4516.096191406 -4516.095703125 -4516.057128906 -4516.020019531 -4515.993652344 -4515.940429688 -4515.891601563 -4515.898925781 -4515.962402344 -4516.083007813 -4516.243652344 -4516.354003906 -4516.428710938 -4516.505371094 -4516.599121094 -4516.720703125 -4516.895019531 -4517.099609375 -4517.241210938 -4517.314941406 -4517.356445313 -4517.404296875 -4517.452148438 -4517.456542969 -4517.388183594 -4517.308105469 -4517.272949219 -4517.276367188 -4517.334960938 -4517.431152344 -4517.519531250 -4517.583007813 -4517.602050781 -4517.557128906 -4517.461914063 -4517.351562500 -4517.280761719 -4517.278808594 -4517.322753906 -4517.342773438 -4517.274902344 -4517.128417969 -4516.949707031 -4516.773925781 -4516.640136719 -4516.558593750 -4516.467285156 -4516.348144531 -4516.208496094 -4516.084472656 -4515.974121094 -4515.894042969 -4515.884277344 -4515.938964844 -4516.003906250 -4516.049804688 -4516.077148438 -4516.111816406 -4516.137207031 -4516.145507813 -4516.133300781 -4516.099121094
-4516.173339844 -4516.101562500 -4516.069824219 -4516.105468750 -4516.060546875 -4515.991699219 -4515.924316406 -4515.858886719 -4515.822265625 -4515.844726563 -4515.906250000 -4516.000000000 -4516.132812500 -4516.237792969 -4516.311523438 -4516.378417969 -4516.447753906 -4516.525878906 -4516.623046875 -4516.771484375 -4516.930175781 -4517.014160156 -4517.061035156 -4517.072265625 -4517.059082031 -4517.062011719 -4517.041015625 -4517.031250000 -4517.060546875 -4517.117187500 -4517.208496094 -4517.297851563 -4517.374023438 -4517.416992188 -4517.414062500 -4517.371093750 -4517.301269531 -4517.224609375 -4517.168457031 -4517.160156250 -4517.177734375 -4517.165039063 -4517.119140625 -4516.965820313 -4516.764648438 -4516.549316406 -4516.387207031 -4516.321289063 -4516.290527344 -4516.250488281 -4516.182617188 -4516.096679688 -4516.025878906 -4515.979003906 -4515.964843750 -4515.987792969 -4516.035156250 -4516.103515625 -4516.140625000 -4516.153320313 -4516.157714844 -4516.137207031 -4516.104003906 -4516.063476563
-4516.158203125 -4516.124023438 -4516.110839844 -4516.154785156 -4516.139648438 -4516.060058594 -4515.970703125 -4515.891601563 -4515.825683594 -4515.817871094 -4515.864746094 -4515.930175781 -4516.015625000 -4516.103027344 -4516.174804688 -4516.222656250 -4516.269531250 -4516.342285156 -4516.427734375 -4516.537109375 -4516.634765625 -4516.696289063 -4516.723632813 -4516.738769531 -4516.766113281 -4516.792968750 -4516.821777344 -4516.872070313 -4516.937011719 -4517.001953125 -4517.091308594 -4517.167968750 -4517.224121094 -4517.237792969 -4517.244140625 -4517.257324219 -4517.216796875 -4517.127441406 -4517.060546875 -4517.046875000 -4517.040527344 -4517.015136719 -4516.961425781 -4516.787109375 -4516.568847656 -4516.383789063 -4516.260253906 -4516.203613281 -4516.193359375 -4516.168457031 -4516.113281250 -4516.055664063 -4516.024902344 -4516.007812500 -4516.000976563 -4516.024902344 -4516.077148438 -4516.146972656 -4516.177734375 -4516.175292969 -4516.166992188 -4516.140625000 -4516.102539063 -4516.055664063
-4516.159179688 -4516.144042969 -4516.152343750 -4516.187500000 -4516.170898438 -4516.113769531 -4516.026855469 -4515.931640625 -4515.843750000 -4515.804199219 -4515.826660156 -4515.882812500 -4515.942871094 -4515.986328125 -4516.021484375 -4516.050781250 -4516.095214844 -4516.169921875 -4516.260742188 -4516.357910156 -4516.432617188 -4516.472656250 -4516.483886719 -4516.508300781 -4516.543945313 -4516.562988281 -4516.616210938 -4516.718750000 -4516.824707031 -4516.909667969 -4516.979492188 -4517.041015625 -4517.078125000 -4517.087402344 -4517.134765625 -4517.190429688 -4517.178710938 -4517.107421875 -4517.018554688 -4516.953125000 -4516.909179688 -4516.860351563 -4516.767578125 -4516.550292969 -4516.347167969 -4516.255371094 -4516.201171875 -4516.151367188 -4516.116210938 -4516.058593750 -4515.986816406 -4515.949707031 -4515.958496094 -4515.976074219 -4516.002441406 -4516.054687500 -4516.117675781 -4516.174316406 -4516.196777344 -4516.191894531 -4516.178222656 -4516.148925781 -4516.116210938 -4516.073730469
-4516.212890625 -4516.178222656 -4516.151367188 -4516.168945313 -4516.163574219 -4516.120605469 -4516.046875000 -4515.955078125 -4515.853027344 -4515.788085938 -4515.791992188 -4515.842285156 -4515.895507813 -4515.914062500 -4515.920410156 -4515.939453125 -4515.985351563 -4516.059082031 -4516.154296875 -4516.254882813 -4516.321289063 -4516.351562500 -4516.359863281 -4516.382324219 -4516.383789063 -4516.346191406 -4516.361816406 -4516.465332031 -4516.623535156 -4516.763671875 -4516.847656250 -4516.899414063 -4516.957031250 -4516.998535156 -4517.019531250 -4517.041992188 -4517.040039063 -4516.990234375 -4516.893554688 -4516.799804688 -4516.729492188 -4516.648437500 -4516.533203125 -4516.351074219 -4516.216308594 -4516.186523438 -4516.162109375 -4516.110351563 -4516.054687500 -4515.976074219 -4515.888671875 -4515.863769531 -4515.888671875 -4515.923339844 -4515.986328125 -4516.071777344 -4516.145507813 -4516.192871094 -4516.207031250 -4516.200683594 -4516.189453125 -4516.164062500 -4516.135742188 -4516.095214844
-4516.264160156 -4516.201171875 -4516.113281250 -4516.063476563 -4516.086914063 -4516.080078125 -4516.042480469 -4515.973144531 -4515.871582031 -4515.792480469 -4515.777832031 -4515.803222656 -4515.839355469 -4515.856933594 -4515.860351563 -4515.880859375 -4515.930664063 -4516.001953125 -4516.098632813 -4516.192871094 -4516.240722656 -4516.260742188 -4516.271484375 -4516.284179688 -4516.262207031 -4516.195800781 -4516.129882813 -4516.165039063 -4516.345214844 -4516.532714844 -4516.646972656 -4516.722656250 -4516.794921875 -4516.869628906 -4516.889648438 -4516.828613281 -4516.777343750 -4516.742187500 -4516.649902344 -4516.546875000 -4516.465332031 -4516.384765625 -4516.270507813 -4516.160644531 -4516.097656250 -4516.089355469 -4516.069335938 -4516.025878906 -4515.993164063 -4515.931152344 -4515.861328125 -4515.834960938 -4515.836914063 -4515.876464844 -4515.977539063 -4516.086914063 -4516.159667969 -4516.195312500 -4516.208007813 -4516.202148438 -4516.189941406 -4516.166992188 -4516.142089844 -4516.105957031
-4516.281738281 -4516.201660156 -4516.080078125 -4515.953125000 -4515.920410156 -4515.955078125 -4515.975585938 -4515.932128906 -4515.854003906 -4515.798828125 -4515.773437500 -4515.762695313 -4515.765136719 -4515.784667969 -4515.805175781 -4515.842773438 -4515.899414063 -4515.971191406 -4516.055664063 -4516.126953125 -4516.156738281 -4516.166015625 -4516.170410156 -4516.166015625 -4516.144531250 -4516.089843750 -4516.019531250 -4516.008300781 -4516.107910156 -4516.251953125 -4516.375976563 -4516.474609375 -4516.560058594 -4516.665039063 -4516.711914063 -4516.609375000 -4516.459960938 -4516.372558594 -4516.296386719 -4516.216308594 -4516.153320313 -4516.116699219 -4516.044433594 -4516.014648438 -4515.980468750 -4515.917480469 -4515.884277344 -4515.880859375 -4515.909667969 -4515.922363281 -4515.906738281 -4515.881835938 -4515.846679688 -4515.867675781 -4515.975585938 -4516.083007813 -4516.145019531 -4516.176757813 -4516.190917969 -4516.187500000 -4516.179687500 -4516.166503906 -4516.149414063 -4516.128906250
-4516.308105469 -4516.225097656 -4516.095703125 -4515.953125000 -4515.882812500 -4515.885742188 -4515.915527344 -4515.900878906 -4515.854492188 -4515.819824219 -4515.795410156 -4515.753417969 -4515.716308594 -4515.723144531 -4515.766601563 -4515.827148438 -4515.885742188 -4515.949218750 -4516.013183594 -4516.053710938 -4516.068359375 -4516.072753906 -4516.058593750 -4516.037109375 -4516.024414063 -4515.998046875 -4515.967285156 -4515.955078125 -4515.986816406 -4516.064453125 -4516.164062500 -4516.258300781 -4516.346191406 -4516.462402344 -4516.520996094 -4516.416503906 -4516.253906250 -4516.153320313 -4516.081542969 -4516.011230469 -4515.957519531 -4515.931152344 -4515.876953125 -4515.856933594 -4515.817871094 -4515.766601563 -4515.766601563 -4515.802734375 -4515.881347656 -4515.945800781 -4515.971679688 -4515.965332031 -4515.928222656 -4515.943847656 -4516.011718750 -4516.069335938 -4516.103515625 -4516.125976563 -4516.141601563 -4516.142578125 -4516.142578125 -4516.134765625 -4516.121582031 -4516.113769531
-4516.316406250 -4516.238769531 -4516.125976563 -4515.989746094 -4515.892089844 -4515.843261719 -4515.844238281 -4515.848632813 -4515.854492188 -4515.852050781 -4515.829589844 -4515.769042969 -4515.707519531 -4515.697265625 -4515.738769531 -4515.803710938 -4515.855957031 -4515.896972656 -4515.936523438 -4515.966796875 -4515.981445313 -4515.977539063 -4515.952636719 -4515.920898438 -4515.908691406 -4515.901367188 -4515.893066406 -4515.885742188 -4515.890625000 -4515.930664063 -4516.001953125 -4516.082519531 -4516.164062500 -4516.253906250 -4516.275878906 -4516.190917969 -4516.083496094 -4516.008789063 -4515.931152344 -4515.853515625 -4515.798828125 -4515.769042969 -4515.713867188 -4515.712402344 -4515.715332031 -4515.703125000 -4515.722167969 -4515.780761719 -4515.901367188 -4516.013183594 -4516.071777344 -4516.080566406 -4516.062500000 -4516.087402344 -4516.106445313 -4516.099609375 -4516.096191406 -4516.098632813 -4516.105957031 -4516.107910156 -4516.106933594 -4516.102539063 -4516.097167969 -4516.101074219
-4516.321777344 -4516.231933594 -4516.123046875 -4516.020996094 -4515.934570313 -4515.843750000 -4515.777832031 -4515.779296875 -4515.838867188 -4515.878906250 -4515.876953125 -4515.809082031 -4515.729003906 -4515.689453125 -4515.724121094 -4515.793457031 -4515.842773438 -4515.858398438 -4515.862792969 -4515.897949219 -4515.933105469 -4515.921386719 -4515.879394531 -4515.845214844 -4515.836425781 -4515.838378906 -4515.833984375 -4515.819824219 -4515.805664063 -4515.811035156 -4515.856933594 -4515.937988281 -4516.032226563 -4516.114746094 -4516.124023438 -4516.055664063 -4515.978515625 -4515.930175781 -4515.856445313 -4515.766601563 -4515.695312500 -4515.636718750 -4515.610351563 -4515.641601563 -4515.669921875 -4515.696777344 -4515.747070313 -4515.834960938 -4515.987792969 -4516.130859375 -4516.203613281 -4516.215820313 -4516.208984375 -4516.225097656 -4516.213378906 -4516.173339844 -4516.142578125 -4516.132324219 -4516.142089844 -4516.129394531 -4516.108886719 -4516.094726563 -4516.088378906 -4516.103027344
-4516.330566406 -4516.233398438 -4516.110839844 -4516.022949219 -4515.960937500 -4515.891601563 -4515.825195313 -4515.796875000 -4515.830566406 -4515.880859375 -4515.925781250 -4515.897949219 -4515.818359375 -4515.768066406 -4515.793457031 -4515.853027344 -4515.874023438 -4515.852539063 -4515.842285156 -4515.878906250 -4515.923828125 -4515.916992188 -4515.867675781 -4515.823242188 -4515.804687500 -4515.802734375 -4515.795410156 -4515.776367188 -4515.754394531 -4515.747070313 -4515.772949219 -4515.854980469 -4515.958496094 -4516.023437500 -4516.029785156 -4515.990234375 -4515.944335938 -4515.914062500 -4515.844726563 -4515.745605469 -4515.667480469 -4515.627929688 -4515.628906250 -4515.665039063 -4515.700195313 -4515.753417969 -4515.833007813 -4515.953125000 -4516.125000000 -4516.273437500 -4516.346679688 -4516.359375000 -4516.353515625 -4516.360351563 -4516.352539063 -4516.312988281 -4516.267578125 -4516.245117188 -4516.234863281 -4516.187011719 -4516.142089844 -4516.124511719 -4516.116210938 -4516.125488281
-4516.332519531 -4516.236816406 -4516.089843750 -4516.005859375 -4515.970703125 -4515.962890625 -4515.969238281 -4515.940917969 -4515.899902344 -4515.927734375 -4515.977539063 -4515.983398438 -4515.943359375 -4515.910156250 -4515.931640625 -4515.962890625 -4515.941406250 -4515.889160156 -4515.864257813 -4515.889648438 -4515.937500000 -4515.951171875 -4515.912109375 -4515.852539063 -4515.808593750 -4515.793457031 -4515.780273438 -4515.756347656 -4515.729492188 -4515.717285156 -4515.744140625 -4515.845214844 -4515.944824219 -4515.963867188 -4515.951660156 -4515.942871094 -4515.930664063 -4515.901855469 -4515.832519531 -4515.738281250 -4515.673339844 -4515.652343750 -4515.672363281 -4515.710449219 -4515.749511719 -4515.815429688 -4515.900878906 -4516.041015625 -4516.227539063 -4516.368164063 -4516.434082031 -4516.439941406 -4516.436523438 -4516.482910156 -4516.509277344 -4516.468750000 -4516.413085938 -4516.380371094 -4516.353515625 -4516.287109375 -4516.225097656 -4516.196777344 -4516.182617188 -4516.176757813
-4516.334472656 -4516.222656250 -4516.070312500 -4516.007324219 -4516.014648438 -4516.065917969 -4516.111328125 -4516.096679688 -4516.032226563 -4516.002441406 -4516.021972656 -4516.027343750 -4516.011230469 -4516.018554688 -4516.056640625 -4516.064453125 -4516.013671875 -4515.949218750 -4515.916992188 -4515.937500000 -4515.971191406 -4515.984863281 -4515.962890625 -4515.897460938 -4515.832519531 -4515.806152344 -4515.799316406 -4515.779296875 -4515.742675781 -4515.726074219 -4515.758300781 -4515.868652344 -4515.955078125 -4515.946289063 -4515.910156250 -4515.894531250 -4515.889648438 -4515.863281250 -4515.809082031 -4515.743652344 -4515.704101563 -4515.700683594 -4515.719726563 -4515.759765625 -4515.805664063 -4515.856445313 -4515.927734375 -4516.069824219 -4516.263671875 -4516.411621094 -4516.477539063 -4516.478515625 -4516.501464844 -4516.565917969 -4516.586425781 -4516.555175781 -4516.506835938 -4516.464355469 -4516.419921875 -4516.354003906 -4516.301757813 -4516.280273438 -4516.264160156 -4516.250488281
-4516.313964844 -4516.200195313 -4516.053710938 -4516.019531250 -4516.062988281 -4516.152343750 -4516.211914063 -4516.189453125 -4516.118164063 -4516.058593750 -4516.043945313 -4516.042480469 -4516.039062500 -4516.068359375 -4516.119628906 -4516.136718750 -4516.094238281 -4516.029296875 -4515.982421875 -4515.979003906 -4515.989746094 -4515.994628906 -4515.980957031 -4515.926757813 -4515.861328125 -4515.834960938 -4515.849609375 -4515.834960938 -4515.786621094 -4515.769531250 -4515.804687500 -4515.918457031 -4515.992675781 -4515.956542969 -4515.897460938 -4515.861816406 -4515.843750000 -4515.823730469 -4515.798339844 -4515.781250000 -4515.781738281 -4515.794921875 -4515.795410156 -4515.817871094 -4515.855957031 -4515.894042969 -4515.947753906 -4516.052246094 -4516.243652344 -4516.422363281 -4516.507812500 -4516.523925781 -4516.554199219 -4516.614746094 -4516.636718750 -4516.609863281 -4516.570312500 -4516.524902344 -4516.468750000 -4516.410156250 -4516.368164063 -4516.349609375 -4516.330566406 -4516.310058594
