-1860.776489258 -1860.800781250 -1860.827514648 -1860.858276367 -1860.862426758 -1860.862915039 -1860.904907227 -1860.931274414 -1860.983032227 -1861.064208984 -1861.136840820 -1861.184570313 -1861.202026367 -1861.217163086 -1861.229003906 -1861.243652344 -1861.258666992 -1861.288452148 -1861.319091797 -1861.393554688 -1861.496826172 -1861.594970703 -1861.680908203 -1861.745605469 -1861.770019531 -1861.749145508 -1861.716674805 -1861.697387695 -1861.707397461 -1861.745483398 -1861.803100586 -1861.859008789 -1861.908081055 -1861.958740234 -1862.007690430 -1862.041381836 -1862.065307617 -1862.079956055 -1862.080200195 -1862.061035156 -1862.029174805 -1861.988037109 -1861.940307617 -1861.902465820 -1861.874511719 -1861.849365234 -1861.822875977 -1861.789672852 -1861.756591797 -1861.738647461 -1861.740600586 -1861.774047852 -1861.851806641 -1861.940307617 -1862.025024414 -1862.091064453 -1862.115112305 -1862.123657227 -1862.142944336 -1862.161865234 -1862.182495117 -1862.228759766 -1862.276611328 -1862.311645508 -1862.356811523 -1862.434082031 -1862.531494141 -1862.635864258 -1862.750244141 -1862.854858398 -1862.939575195 -1863.023803711 -1863.123046875 -1863.237304688 -1863.355712891 -1863.497924805 -1863.654052734 -1863.808105469 -1863.954833984 -1864.099487305
-1860.635131836 -1860.662597656 -1860.703857422 -1860.752685547 -1860.776977539 -1860.792358398 -1860.818969727 -1860.840942383 -1860.895874023 -1860.958374023 -1861.028686523 -1861.060546875 -1861.100097656 -1861.118774414 -1861.135620117 -1861.149047852 -1861.165527344 -1861.180175781 -1861.199584961 -1861.274291992 -1861.384277344 -1861.466186523 -1861.558471680 -1861.588012695 -1861.605102539 -1861.603027344 -1861.571411133 -1861.551879883 -1861.553588867 -1861.586669922 -1861.638916016 -1861.690673828 -1861.732910156 -1861.785156250 -1861.837646484 -1861.870239258 -1861.885742188 -1861.885498047 -1861.868774414 -1861.847045898 -1861.823974609 -1861.794799805 -1861.760131836 -1861.727783203 -1861.705444336 -1861.683349609 -1861.647094727 -1861.599365234 -1861.554321289 -1861.520507813 -1861.509033203 -1861.544555664 -1861.627929688 -1861.713256836 -1861.785888672 -1861.849365234 -1861.882446289 -1861.890747070 -1861.917968750 -1861.957519531 -1861.984741211 -1862.020874023 -1862.067504883 -1862.114624023 -1862.168823242 -1862.257446289 -1862.363159180 -1862.459716797 -1862.561157227 -1862.653564453 -1862.728881836 -1862.798217773 -1862.894775391 -1863.013427734 -1863.140625000 -1863.275878906 -1863.427490234 -1863.584838867 -1863.732543945 -1863.884277344
-1860.486938477 -1860.537719727 -1860.584838867 -1860.643188477 -1860.688842773 -1860.718505859 -1860.754516602 -1860.772460938 -1860.822875977 -1860.869506836 -1860.932739258 -1860.964111328 -1860.997436523 -1861.026855469 -1861.053710938 -1861.065307617 -1861.083374023 -1861.092163086 -1861.100219727 -1861.144897461 -1861.243408203 -1861.333374023 -1861.409545898 -1861.423583984 -1861.442382813 -1861.459716797 -1861.437866211 -1861.434570313 -1861.439697266 -1861.470214844 -1861.514282227 -1861.557739258 -1861.595703125 -1861.635620117 -1861.667846680 -1861.677856445 -1861.671386719 -1861.661376953 -1861.647949219 -1861.629882813 -1861.614013672 -1861.603027344 -1861.586059570 -1861.562988281 -1861.544555664 -1861.519409180 -1861.470825195 -1861.405639648 -1861.349121094 -1861.309082031 -1861.296752930 -1861.333007813 -1861.411376953 -1861.492797852 -1861.558959961 -1861.624511719 -1861.679077148 -1861.712280273 -1861.751342773 -1861.805175781 -1861.846435547 -1861.871093750 -1861.906860352 -1861.953125000 -1862.002197266 -1862.079101563 -1862.176879883 -1862.270141602 -1862.353515625 -1862.428222656 -1862.492675781 -1862.555664063 -1862.644165039 -1862.767700195 -1862.906250000 -1863.041748047 -1863.191528320 -1863.352783203 -1863.515014648 -1863.680053711
-1860.353271484 -1860.401611328 -1860.459350586 -1860.527587891 -1860.593139648 -1860.629882813 -1860.674194336 -1860.713012695 -1860.764038086 -1860.798339844 -1860.854736328 -1860.891235352 -1860.920288086 -1860.948242188 -1860.977539063 -1860.991210938 -1860.993286133 -1860.989379883 -1860.980346680 -1861.008178711 -1861.081909180 -1861.180541992 -1861.247070313 -1861.278564453 -1861.298217773 -1861.308837891 -1861.301147461 -1861.320434570 -1861.347778320 -1861.384155273 -1861.418945313 -1861.448242188 -1861.469116211 -1861.481201172 -1861.484130859 -1861.471191406 -1861.446289063 -1861.421020508 -1861.401855469 -1861.390991211 -1861.391479492 -1861.396850586 -1861.394897461 -1861.385009766 -1861.364379883 -1861.325195313 -1861.266601563 -1861.198486328 -1861.138305664 -1861.099975586 -1861.097045898 -1861.131347656 -1861.192626953 -1861.262939453 -1861.333007813 -1861.412719727 -1861.487426758 -1861.542358398 -1861.585205078 -1861.633056641 -1861.669677734 -1861.701049805 -1861.743530273 -1861.788330078 -1861.835815430 -1861.904296875 -1861.990478516 -1862.072998047 -1862.146240234 -1862.217041016 -1862.280639648 -1862.340454102 -1862.419433594 -1862.534667969 -1862.671752930 -1862.809814453 -1862.964233398 -1863.128417969 -1863.298095703 -1863.474121094
-1860.245483398 -1860.286743164 -1860.335449219 -1860.398437500 -1860.475708008 -1860.531494141 -1860.581298828 -1860.642700195 -1860.698364258 -1860.736816406 -1860.783447266 -1860.822265625 -1860.853393555 -1860.872680664 -1860.895263672 -1860.905273438 -1860.887817383 -1860.861694336 -1860.845092773 -1860.869262695 -1860.922241211 -1861.010131836 -1861.079956055 -1861.123046875 -1861.138305664 -1861.152709961 -1861.168823242 -1861.192504883 -1861.224487305 -1861.264160156 -1861.297851563 -1861.315307617 -1861.318603516 -1861.305297852 -1861.273681641 -1861.229492188 -1861.190551758 -1861.161376953 -1861.139770508 -1861.137329102 -1861.147949219 -1861.163085938 -1861.173217773 -1861.161499023 -1861.132080078 -1861.085815430 -1861.025268555 -1860.967041016 -1860.921508789 -1860.895263672 -1860.895874023 -1860.925781250 -1860.979492188 -1861.046752930 -1861.122558594 -1861.203735352 -1861.276733398 -1861.328247070 -1861.366333008 -1861.409301758 -1861.448974609 -1861.494506836 -1861.541870117 -1861.585449219 -1861.630859375 -1861.690673828 -1861.772460938 -1861.855224609 -1861.936767578 -1862.022583008 -1862.098022461 -1862.155395508 -1862.230468750 -1862.343017578 -1862.476318359 -1862.618652344 -1862.781372070 -1862.945190430 -1863.105834961 -1863.269042969
-1860.134521484 -1860.177978516 -1860.215332031 -1860.262817383 -1860.338134766 -1860.411743164 -1860.465454102 -1860.536254883 -1860.598999023 -1860.654907227 -1860.699462891 -1860.738403320 -1860.759643555 -1860.770263672 -1860.766601563 -1860.756591797 -1860.718139648 -1860.679199219 -1860.664428711 -1860.705688477 -1860.766235352 -1860.855346680 -1860.941894531 -1860.992553711 -1861.005371094 -1861.020874023 -1861.040649414 -1861.056152344 -1861.081176758 -1861.112304688 -1861.137695313 -1861.139038086 -1861.124389648 -1861.090087891 -1861.035888672 -1860.973510742 -1860.932495117 -1860.913696289 -1860.894897461 -1860.890991211 -1860.898925781 -1860.910278320 -1860.917480469 -1860.895874023 -1860.856933594 -1860.809692383 -1860.755493164 -1860.710449219 -1860.681396484 -1860.668701172 -1860.674682617 -1860.705566406 -1860.760864258 -1860.830322266 -1860.903320313 -1860.977416992 -1861.040283203 -1861.085083008 -1861.122070313 -1861.155517578 -1861.201904297 -1861.253051758 -1861.305053711 -1861.358276367 -1861.406127930 -1861.468872070 -1861.540771484 -1861.627563477 -1861.716918945 -1861.816162109 -1861.910034180 -1861.975341797 -1862.051879883 -1862.162719727 -1862.304199219 -1862.451904297 -1862.623535156 -1862.783081055 -1862.933715820 -1863.069702148
-1859.976806641 -1860.020629883 -1860.053588867 -1860.111206055 -1860.181030273 -1860.261718750 -1860.331909180 -1860.401367188 -1860.472534180 -1860.537475586 -1860.587402344 -1860.620727539 -1860.622558594 -1860.604003906 -1860.567626953 -1860.535888672 -1860.485229492 -1860.455078125 -1860.449829102 -1860.514404297 -1860.601196289 -1860.718017578 -1860.814697266 -1860.867553711 -1860.884033203 -1860.885742188 -1860.894531250 -1860.898925781 -1860.914550781 -1860.928466797 -1860.940429688 -1860.937011719 -1860.913696289 -1860.868774414 -1860.809448242 -1860.745117188 -1860.702880859 -1860.684936523 -1860.666137695 -1860.656372070 -1860.661621094 -1860.666015625 -1860.657958984 -1860.625122070 -1860.573852539 -1860.519653320 -1860.465820313 -1860.421752930 -1860.400146484 -1860.407226563 -1860.438354492 -1860.485229492 -1860.549072266 -1860.625366211 -1860.693603516 -1860.748779297 -1860.799438477 -1860.841796875 -1860.869995117 -1860.906372070 -1860.958129883 -1861.008178711 -1861.059448242 -1861.112304688 -1861.164306641 -1861.242065430 -1861.314697266 -1861.404052734 -1861.515014648 -1861.622802734 -1861.724487305 -1861.808959961 -1861.889282227 -1861.993164063 -1862.137573242 -1862.292236328 -1862.465454102 -1862.622802734 -1862.774291992 -1862.894042969
-1859.826538086 -1859.841674805 -1859.899047852 -1859.948486328 -1860.012207031 -1860.082641602 -1860.152954102 -1860.223144531 -1860.295898438 -1860.357177734 -1860.411499023 -1860.443359375 -1860.424438477 -1860.368652344 -1860.322387695 -1860.287353516 -1860.242309570 -1860.225830078 -1860.239379883 -1860.318359375 -1860.421508789 -1860.527343750 -1860.634521484 -1860.707031250 -1860.752075195 -1860.766723633 -1860.763793945 -1860.743164063 -1860.736328125 -1860.733398438 -1860.738769531 -1860.739990234 -1860.723632813 -1860.682861328 -1860.623413086 -1860.561645508 -1860.507690430 -1860.466186523 -1860.443237305 -1860.434204102 -1860.426879883 -1860.410400391 -1860.383178711 -1860.343017578 -1860.287719727 -1860.233032227 -1860.185791016 -1860.147827148 -1860.128295898 -1860.138549805 -1860.177490234 -1860.237182617 -1860.312500000 -1860.388183594 -1860.436523438 -1860.493652344 -1860.557617188 -1860.600952148 -1860.629516602 -1860.666992188 -1860.719970703 -1860.776245117 -1860.824584961 -1860.875732422 -1860.927856445 -1860.998413086 -1861.085205078 -1861.193237305 -1861.322875977 -1861.433105469 -1861.533569336 -1861.625366211 -1861.716552734 -1861.825195313 -1861.966308594 -1862.120117188 -1862.294921875 -1862.449218750 -1862.585937500 -1862.703491211
-1859.685668945 -1859.677612305 -1859.732666016 -1859.781616211 -1859.844604492 -1859.901855469 -1859.966430664 -1860.033569336 -1860.098266602 -1860.147216797 -1860.181030273 -1860.211791992 -1860.190917969 -1860.143188477 -1860.109985352 -1860.085693359 -1860.051391602 -1860.037597656 -1860.062255859 -1860.131591797 -1860.238891602 -1860.336303711 -1860.436523438 -1860.528686523 -1860.591064453 -1860.612548828 -1860.599609375 -1860.563110352 -1860.539428711 -1860.531982422 -1860.542114258 -1860.546630859 -1860.533447266 -1860.495239258 -1860.434204102 -1860.366455078 -1860.304931641 -1860.250122070 -1860.211669922 -1860.188476563 -1860.161865234 -1860.120727539 -1860.078857422 -1860.044677734 -1860.007446289 -1859.975708008 -1859.954101563 -1859.930175781 -1859.902709961 -1859.896972656 -1859.926757813 -1859.978271484 -1860.029785156 -1860.084350586 -1860.139404297 -1860.197875977 -1860.257202148 -1860.321655273 -1860.373657227 -1860.423583984 -1860.487792969 -1860.560424805 -1860.611450195 -1860.662231445 -1860.713623047 -1860.777343750 -1860.867431641 -1860.985107422 -1861.114135742 -1861.236572266 -1861.333129883 -1861.422485352 -1861.532226563 -1861.657958984 -1861.787353516 -1861.916015625 -1862.076293945 -1862.225585938 -1862.353271484 -1862.468872070
-1859.537353516 -1859.548828125 -1859.595336914 -1859.632202148 -1859.680175781 -1859.729248047 -1859.780883789 -1859.816406250 -1859.867187500 -1859.916870117 -1859.945312500 -1859.977783203 -1859.996093750 -1859.979492188 -1859.952636719 -1859.937744141 -1859.921020508 -1859.922485352 -1859.897460938 -1859.944580078 -1860.032104492 -1860.128417969 -1860.241333008 -1860.330322266 -1860.384887695 -1860.401489258 -1860.390136719 -1860.354370117 -1860.324218750 -1860.322265625 -1860.341918945 -1860.351806641 -1860.338134766 -1860.293823242 -1860.221191406 -1860.141845703 -1860.077514648 -1860.014526367 -1859.947143555 -1859.891113281 -1859.843261719 -1859.793090820 -1859.749755859 -1859.730590820 -1859.732177734 -1859.740356445 -1859.746337891 -1859.737182617 -1859.710327148 -1859.686645508 -1859.688964844 -1859.716308594 -1859.746704102 -1859.777832031 -1859.817749023 -1859.878906250 -1859.949829102 -1860.030395508 -1860.109252930 -1860.183105469 -1860.261596680 -1860.342895508 -1860.386962891 -1860.434448242 -1860.509887695 -1860.576660156 -1860.652465820 -1860.746582031 -1860.850952148 -1860.982788086 -1861.101562500 -1861.209960938 -1861.340087891 -1861.470703125 -1861.593017578 -1861.708007813 -1861.857421875 -1862.003784180 -1862.121704102 -1862.224121094
-1859.438110352 -1859.461425781 -1859.485961914 -1859.504150391 -1859.530639648 -1859.569702148 -1859.594726563 -1859.614379883 -1859.657958984 -1859.710205078 -1859.753662109 -1859.796264648 -1859.845214844 -1859.842041016 -1859.831298828 -1859.821166992 -1859.814941406 -1859.807006836 -1859.779052734 -1859.808349609 -1859.872192383 -1859.956909180 -1860.043090820 -1860.097534180 -1860.126098633 -1860.132080078 -1860.134277344 -1860.121337891 -1860.103881836 -1860.105468750 -1860.115966797 -1860.097045898 -1860.065063477 -1860.020751953 -1859.945678711 -1859.863037109 -1859.795776367 -1859.732666016 -1859.661987305 -1859.586914063 -1859.513427734 -1859.466186523 -1859.450927734 -1859.444458008 -1859.468750000 -1859.524780273 -1859.555053711 -1859.554565430 -1859.536010742 -1859.515380859 -1859.508422852 -1859.518188477 -1859.531127930 -1859.548461914 -1859.595947266 -1859.636596680 -1859.692016602 -1859.774658203 -1859.859619141 -1859.945678711 -1860.015502930 -1860.086059570 -1860.153930664 -1860.209350586 -1860.272583008 -1860.335327148 -1860.405029297 -1860.492187500 -1860.592773438 -1860.723754883 -1860.860473633 -1860.987060547 -1861.123657227 -1861.262695313 -1861.393554688 -1861.514892578 -1861.657592773 -1861.801391602 -1861.923583984 -1862.019897461
-1859.325195313 -1859.350097656 -1859.373046875 -1859.380737305 -1859.386352539 -1859.389526367 -1859.399169922 -1859.449462891 -1859.461791992 -1859.535644531 -1859.631347656 -1859.686889648 -1859.723144531 -1859.724487305 -1859.726318359 -1859.720458984 -1859.703002930 -1859.673217773 -1859.679321289 -1859.714111328 -1859.756347656 -1859.794921875 -1859.823730469 -1859.842041016 -1859.852661133 -1859.861206055 -1859.877197266 -1859.888427734 -1859.888549805 -1859.882568359 -1859.879272461 -1859.840209961 -1859.780273438 -1859.719482422 -1859.639160156 -1859.555175781 -1859.490356445 -1859.435913086 -1859.373779297 -1859.305419922 -1859.239257813 -1859.190551758 -1859.177856445 -1859.200561523 -1859.249633789 -1859.306762695 -1859.345703125 -1859.358032227 -1859.357543945 -1859.357177734 -1859.354492188 -1859.353393555 -1859.351074219 -1859.357543945 -1859.401123047 -1859.454589844 -1859.509887695 -1859.577636719 -1859.656982422 -1859.727539063 -1859.774414063 -1859.827636719 -1859.894897461 -1859.951416016 -1860.010498047 -1860.078125000 -1860.183593750 -1860.292480469 -1860.377807617 -1860.491333008 -1860.627075195 -1860.756713867 -1860.896972656 -1861.029541016 -1861.166259766 -1861.304321289 -1861.458251953 -1861.615600586 -1861.755737305 -1861.870117188
-1859.176025391 -1859.202392578 -1859.238403320 -1859.245727539 -1859.235351563 -1859.213623047 -1859.258422852 -1859.309082031 -1859.353149414 -1859.444946289 -1859.539184570 -1859.581665039 -1859.610229492 -1859.602661133 -1859.595825195 -1859.592895508 -1859.581542969 -1859.560058594 -1859.558837891 -1859.574707031 -1859.599243164 -1859.596435547 -1859.598266602 -1859.598754883 -1859.604003906 -1859.616943359 -1859.641601563 -1859.654174805 -1859.658325195 -1859.658447266 -1859.656860352 -1859.618408203 -1859.540161133 -1859.452392578 -1859.371337891 -1859.315429688 -1859.255737305 -1859.182006836 -1859.125122070 -1859.084838867 -1859.047607422 -1859.015625000 -1859.000732422 -1859.018310547 -1859.061889648 -1859.106079102 -1859.139282227 -1859.155395508 -1859.156372070 -1859.163208008 -1859.172973633 -1859.175048828 -1859.168945313 -1859.162841797 -1859.188842773 -1859.250244141 -1859.325317383 -1859.403198242 -1859.479003906 -1859.534912109 -1859.564086914 -1859.600830078 -1859.658081055 -1859.713989258 -1859.781127930 -1859.866455078 -1859.961425781 -1860.083129883 -1860.179321289 -1860.296142578 -1860.423217773 -1860.554199219 -1860.690917969 -1860.820434570 -1860.962890625 -1861.115478516 -1861.293212891 -1861.480102539 -1861.632812500 -1861.755615234
-1859.029785156 -1859.050292969 -1859.082519531 -1859.082031250 -1859.071411133 -1859.096191406 -1859.130004883 -1859.178710938 -1859.247314453 -1859.337646484 -1859.406860352 -1859.442504883 -1859.453613281 -1859.436157227 -1859.426269531 -1859.420532227 -1859.415771484 -1859.407836914 -1859.389526367 -1859.382812500 -1859.374389648 -1859.364624023 -1859.363647461 -1859.374633789 -1859.389282227 -1859.397460938 -1859.406127930 -1859.411376953 -1859.420410156 -1859.425537109 -1859.420776367 -1859.379638672 -1859.309692383 -1859.230102539 -1859.144409180 -1859.076904297 -1859.031250000 -1858.976684570 -1858.929199219 -1858.895385742 -1858.862060547 -1858.833374023 -1858.817260742 -1858.829711914 -1858.866821289 -1858.901367188 -1858.920288086 -1858.934814453 -1858.943725586 -1858.942138672 -1858.940795898 -1858.945312500 -1858.953125000 -1858.974975586 -1859.004638672 -1859.054809570 -1859.129150391 -1859.199829102 -1859.261352539 -1859.311035156 -1859.344482422 -1859.386230469 -1859.439575195 -1859.508178711 -1859.592041016 -1859.688354492 -1859.786132813 -1859.883300781 -1859.989013672 -1860.103149414 -1860.227783203 -1860.359252930 -1860.497436523 -1860.638305664 -1860.785766602 -1860.936035156 -1861.115234375 -1861.268554688 -1861.406250000 -1861.532958984
-1858.886596680 -1858.917114258 -1858.945190430 -1858.934570313 -1858.927612305 -1858.978271484 -1859.004272461 -1859.024902344 -1859.095825195 -1859.178710938 -1859.231933594 -1859.263305664 -1859.267578125 -1859.258422852 -1859.255004883 -1859.252441406 -1859.251098633 -1859.234863281 -1859.205810547 -1859.173461914 -1859.146850586 -1859.140502930 -1859.143432617 -1859.156494141 -1859.163330078 -1859.166748047 -1859.173461914 -1859.184082031 -1859.199462891 -1859.208251953 -1859.205444336 -1859.167480469 -1859.104980469 -1859.031005859 -1858.955322266 -1858.890991211 -1858.838500977 -1858.790893555 -1858.750366211 -1858.715454102 -1858.683715820 -1858.659912109 -1858.651489258 -1858.665771484 -1858.704223633 -1858.742065430 -1858.741088867 -1858.720092773 -1858.718750000 -1858.721191406 -1858.721801758 -1858.730712891 -1858.745117188 -1858.770385742 -1858.806518555 -1858.860351563 -1858.928344727 -1858.984863281 -1859.033935547 -1859.080078125 -1859.125366211 -1859.178466797 -1859.239501953 -1859.324829102 -1859.415893555 -1859.511840820 -1859.605957031 -1859.697143555 -1859.799682617 -1859.913452148 -1860.044799805 -1860.179565430 -1860.313964844 -1860.454345703 -1860.599487305 -1860.756713867 -1860.922363281 -1861.053833008 -1861.206054688 -1861.340698242
-1858.774169922 -1858.804199219 -1858.822387695 -1858.816406250 -1858.808471680 -1858.831298828 -1858.856567383 -1858.892822266 -1858.956542969 -1859.022949219 -1859.071411133 -1859.096679688 -1859.102172852 -1859.095336914 -1859.092895508 -1859.088378906 -1859.076538086 -1859.048339844 -1859.008178711 -1858.963745117 -1858.928833008 -1858.920166016 -1858.927124023 -1858.940795898 -1858.950805664 -1858.958374023 -1858.967163086 -1858.975219727 -1858.986572266 -1858.992431641 -1858.984619141 -1858.957763672 -1858.916992188 -1858.862670898 -1858.799682617 -1858.736816406 -1858.677490234 -1858.624389648 -1858.582519531 -1858.550537109 -1858.524536133 -1858.506958008 -1858.501708984 -1858.501342773 -1858.489501953 -1858.453247070 -1858.410766602 -1858.428588867 -1858.498291016 -1858.532226563 -1858.532470703 -1858.537353516 -1858.554077148 -1858.580322266 -1858.615600586 -1858.661987305 -1858.716186523 -1858.769409180 -1858.817993164 -1858.866577148 -1858.921020508 -1858.984375000 -1859.057983398 -1859.145874023 -1859.238647461 -1859.331909180 -1859.424072266 -1859.515136719 -1859.613159180 -1859.722167969 -1859.846435547 -1859.979003906 -1860.115844727 -1860.255371094 -1860.397705078 -1860.544067383 -1860.692260742 -1860.833374023 -1860.975830078 -1861.113891602
-1858.693969727 -1858.719848633 -1858.733032227 -1858.733764648 -1858.732543945 -1858.741210938 -1858.762207031 -1858.795288086 -1858.836181641 -1858.891967773 -1858.932006836 -1858.952636719 -1858.956909180 -1858.943115234 -1858.931152344 -1858.919555664 -1858.897705078 -1858.861328125 -1858.815063477 -1858.765869141 -1858.731567383 -1858.719482422 -1858.727050781 -1858.741088867 -1858.753784180 -1858.764892578 -1858.774169922 -1858.784667969 -1858.797241211 -1858.806518555 -1858.801635742 -1858.783447266 -1858.752075195 -1858.707641602 -1858.656250000 -1858.600341797 -1858.541870117 -1858.488281250 -1858.447753906 -1858.417602539 -1858.395263672 -1858.382690430 -1858.378173828 -1858.375854492 -1858.372314453 -1858.367309570 -1858.361450195 -1858.363647461 -1858.375000000 -1858.380249023 -1858.376220703 -1858.376831055 -1858.389282227 -1858.410034180 -1858.438720703 -1858.477050781 -1858.523681641 -1858.574218750 -1858.623657227 -1858.675048828 -1858.734741211 -1858.803833008 -1858.883544922 -1858.973388672 -1859.065307617 -1859.154663086 -1859.242065430 -1859.328247070 -1859.421752930 -1859.525268555 -1859.641235352 -1859.771484375 -1859.907104492 -1860.044433594 -1860.182006836 -1860.320434570 -1860.458618164 -1860.597534180 -1860.736938477 -1860.879272461
-1858.627075195 -1858.650512695 -1858.661132813 -1858.661376953 -1858.658569336 -1858.661743164 -1858.676269531 -1858.702148438 -1858.736206055 -1858.773803711 -1858.803344727 -1858.821899414 -1858.818847656 -1858.798706055 -1858.776611328 -1858.752319336 -1858.721435547 -1858.673339844 -1858.618408203 -1858.566772461 -1858.530395508 -1858.519531250 -1858.533325195 -1858.553344727 -1858.568847656 -1858.581909180 -1858.593261719 -1858.605834961 -1858.619140625 -1858.630615234 -1858.631103516 -1858.620849609 -1858.599121094 -1858.565063477 -1858.521728516 -1858.472778320 -1858.420532227 -1858.370605469 -1858.330322266 -1858.299560547 -1858.278076172 -1858.267089844 -1858.261108398 -1858.252563477 -1858.240356445 -1858.235717773 -1858.240600586 -1858.239746094 -1858.234497070 -1858.234985352 -1858.234375000 -1858.231933594 -1858.236816406 -1858.249145508 -1858.269775391 -1858.300415039 -1858.341064453 -1858.388305664 -1858.439453125 -1858.496582031 -1858.561645508 -1858.634643555 -1858.718017578 -1858.806762695 -1858.894165039 -1858.979125977 -1859.060302734 -1859.139770508 -1859.227661133 -1859.324584961 -1859.435302734 -1859.559936523 -1859.690551758 -1859.821533203 -1859.954711914 -1860.088256836 -1860.222167969 -1860.358276367 -1860.498901367 -1860.644287109
-1858.567016602 -1858.589111328 -1858.596923828 -1858.593017578 -1858.585205078 -1858.582763672 -1858.591674805 -1858.612426758 -1858.640136719 -1858.667480469 -1858.688232422 -1858.701049805 -1858.703247070 -1858.656982422 -1858.609375000 -1858.552001953 -1858.566162109 -1858.532348633 -1858.441772461 -1858.341918945 -1858.266967773 -1858.279296875 -1858.314086914 -1858.356811523 -1858.395507813 -1858.407714844 -1858.400756836 -1858.418090820 -1858.437866211 -1858.458251953 -1858.478515625 -1858.486450195 -1858.464477539 -1858.435180664 -1858.399291992 -1858.353759766 -1858.296264648 -1858.241455078 -1858.184570313 -1858.135498047 -1858.131347656 -1858.143310547 -1858.141113281 -1858.131591797 -1858.117797852 -1858.096313477 -1858.063598633 -1858.071655273 -1858.102172852 -1858.099243164 -1858.091552734 -1858.080200195 -1858.062866211 -1858.063232422 -1858.085449219 -1858.109130859 -1858.139648438 -1858.187377930 -1858.254150391 -1858.318725586 -1858.365112305 -1858.441040039 -1858.533203125 -1858.627563477 -1858.731323242 -1858.816650391 -1858.877563477 -1858.951416016 -1859.028930664 -1859.102172852 -1859.206665039 -1859.320190430 -1859.472412109 -1859.617309570 -1859.737304688 -1859.848876953 -1859.966186523 -1860.114746094 -1860.257202148 -1860.406738281
-1858.510253906 -1858.529907227 -1858.534545898 -1858.526123047 -1858.513671875 -1858.506713867 -1858.511352539 -1858.527587891 -1858.549804688 -1858.569824219 -1858.579711914 -1858.580200195 -1858.584350586 -1858.521362305 -1858.456665039 -1858.374511719 -1858.381347656 -1858.347412109 -1858.242309570 -1858.136962891 -1858.061645508 -1858.080566406 -1858.123046875 -1858.174804688 -1858.219726563 -1858.235961914 -1858.236938477 -1858.258911133 -1858.276245117 -1858.296508789 -1858.323242188 -1858.343383789 -1858.327026367 -1858.307373047 -1858.280517578 -1858.239257813 -1858.187377930 -1858.137207031 -1858.079223633 -1858.026489258 -1858.024169922 -1858.040893555 -1858.040893555 -1858.028320313 -1858.008178711 -1857.984252930 -1857.948120117 -1857.957275391 -1857.992919922 -1857.983520508 -1857.969970703 -1857.955322266 -1857.929687500 -1857.917114258 -1857.923828125 -1857.933105469 -1857.953857422 -1858.002197266 -1858.075683594 -1858.148437500 -1858.203247070 -1858.285034180 -1858.377685547 -1858.468994141 -1858.566406250 -1858.645629883 -1858.694946289 -1858.764282227 -1858.835083008 -1858.898315430 -1858.996337891 -1859.096191406 -1859.244384766 -1859.387939453 -1859.503662109 -1859.610351563 -1859.722412109 -1859.872070313 -1860.019775391 -1860.175292969
-1858.451660156 -1858.466308594 -1858.466308594 -1858.453979492 -1858.438232422 -1858.428588867 -1858.430664063 -1858.443847656 -1858.461303711 -1858.474731445 -1858.478393555 -1858.452758789 -1858.394165039 -1858.308105469 -1858.222778320 -1858.141479492 -1858.109008789 -1858.012817383 -1857.895507813 -1857.798461914 -1857.706420898 -1857.746459961 -1857.829833984 -1857.929443359 -1858.054809570 -1858.155029297 -1858.223144531 -1858.288208008 -1858.297363281 -1858.292602539 -1858.262695313 -1858.213256836 -1858.158447266 -1858.101196289 -1858.057128906 -1858.031982422 -1858.022705078 -1858.025756836 -1858.037719727 -1858.041870117 -1858.033569336 -1858.016357422 -1857.985961914 -1857.949707031 -1857.916015625 -1857.882446289 -1857.843872070 -1857.814697266 -1857.803833008 -1857.787719727 -1857.761474609 -1857.727294922 -1857.717285156 -1857.737304688 -1857.758178711 -1857.790649414 -1857.823852539 -1857.854248047 -1857.886352539 -1857.915161133 -1857.945068359 -1858.009155273 -1858.115844727 -1858.221557617 -1858.343261719 -1858.472534180 -1858.592041016 -1858.707763672 -1858.773071289 -1858.812377930 -1858.823852539 -1858.875488281 -1858.979248047 -1859.110107422 -1859.242553711 -1859.388305664 -1859.526611328 -1859.632690430 -1859.756469727 -1859.877807617
-1858.386108398 -1858.391845703 -1858.384643555 -1858.367431641 -1858.348876953 -1858.338256836 -1858.340087891 -1858.352416992 -1858.369018555 -1858.377319336 -1858.377075195 -1858.386474609 -1858.229980469 -1858.138183594 -1858.047363281 -1857.958007813 -1857.921020508 -1857.834106445 -1857.738403320 -1857.645507813 -1857.575805664 -1857.623291016 -1857.708374023 -1857.807006836 -1857.935913086 -1858.043701172 -1858.113647461 -1858.176879883 -1858.176391602 -1858.157470703 -1858.115600586 -1858.057250977 -1857.997924805 -1857.932006836 -1857.878295898 -1857.846801758 -1857.837768555 -1857.848999023 -1857.873657227 -1857.887695313 -1857.880126953 -1857.860961914 -1857.829467773 -1857.790527344 -1857.752929688 -1857.714599609 -1857.673339844 -1857.637573242 -1857.621215820 -1857.610107422 -1857.585693359 -1857.546386719 -1857.538818359 -1857.567382813 -1857.599487305 -1857.647583008 -1857.692138672 -1857.723388672 -1857.748779297 -1857.765502930 -1857.786376953 -1857.838989258 -1857.948364258 -1858.061035156 -1858.189208984 -1858.329711914 -1858.461914063 -1858.585693359 -1858.654418945 -1858.691894531 -1858.701049805 -1858.753784180 -1858.854736328 -1858.982055664 -1859.119628906 -1859.264892578 -1859.398803711 -1859.489746094 -1859.599243164 -1859.713012695
-1858.311157227 -1858.304199219 -1858.286499023 -1858.260864258 -1858.237182617 -1858.226440430 -1858.231689453 -1858.247924805 -1858.266845703 -1858.293945313 -1858.258789063 -1858.189331055 -1858.085937500 -1857.983520508 -1857.894775391 -1857.816894531 -1857.749145508 -1857.678833008 -1857.618164063 -1857.572387695 -1857.566894531 -1857.581420898 -1857.629638672 -1857.715332031 -1857.810913086 -1857.897949219 -1857.963256836 -1858.002807617 -1858.004272461 -1857.981567383 -1857.941650391 -1857.890136719 -1857.831787109 -1857.772216797 -1857.720703125 -1857.686401367 -1857.673950195 -1857.676879883 -1857.685180664 -1857.691162109 -1857.688964844 -1857.674316406 -1857.648315430 -1857.614868164 -1857.576660156 -1857.537109375 -1857.500732422 -1857.470947266 -1857.446655273 -1857.423583984 -1857.405395508 -1857.394653320 -1857.394409180 -1857.414794922 -1857.453979492 -1857.501708984 -1857.546386719 -1857.582153320 -1857.609008789 -1857.632690430 -1857.670410156 -1857.731201172 -1857.817871094 -1857.928222656 -1858.055908203 -1858.188110352 -1858.310302734 -1858.411865234 -1858.490478516 -1858.551757813 -1858.607788086 -1858.676147461 -1858.772827148 -1858.890747070 -1859.018188477 -1859.143188477 -1859.258300781 -1859.361450195 -1859.465576172 -1859.575317383
-1858.230102539 -1858.204711914 -1858.174316406 -1858.139282227 -1858.096191406 -1858.083984375 -1858.109985352 -1858.132690430 -1858.154907227 -1858.143066406 -1858.085815430 -1858.010498047 -1857.915771484 -1857.812622070 -1857.734252930 -1857.667480469 -1857.600708008 -1857.551391602 -1857.513427734 -1857.497558594 -1857.504272461 -1857.531127930 -1857.599853516 -1857.666137695 -1857.724121094 -1857.784423828 -1857.834106445 -1857.856201172 -1857.848144531 -1857.820800781 -1857.779418945 -1857.729125977 -1857.671508789 -1857.613037109 -1857.562011719 -1857.526367188 -1857.508300781 -1857.501586914 -1857.501464844 -1857.503295898 -1857.499755859 -1857.488037109 -1857.467773438 -1857.438842773 -1857.402587891 -1857.362915039 -1857.325439453 -1857.292114258 -1857.260864258 -1857.235473633 -1857.225585938 -1857.223510742 -1857.229736328 -1857.259521484 -1857.304809570 -1857.353515625 -1857.404174805 -1857.451171875 -1857.487060547 -1857.514892578 -1857.558105469 -1857.613525391 -1857.691528320 -1857.796752930 -1857.918945313 -1858.041870117 -1858.158813477 -1858.260498047 -1858.343017578 -1858.418212891 -1858.491333008 -1858.573242188 -1858.671997070 -1858.787475586 -1858.905395508 -1859.022827148 -1859.133300781 -1859.235839844 -1859.340820313 -1859.446289063
-1858.162841797 -1858.102539063 -1858.027343750 -1858.033447266 -1858.003540039 -1857.954223633 -1857.971801758 -1857.994750977 -1858.007690430 -1857.962524414 -1857.880493164 -1857.782348633 -1857.692138672 -1857.588012695 -1857.532104492 -1857.475585938 -1857.459960938 -1857.459594727 -1857.445068359 -1857.462524414 -1857.482055664 -1857.518920898 -1857.576660156 -1857.634765625 -1857.670532227 -1857.704589844 -1857.727783203 -1857.727416992 -1857.703125000 -1857.661499023 -1857.609252930 -1857.555175781 -1857.497680664 -1857.445068359 -1857.395996094 -1857.351196289 -1857.317504883 -1857.292114258 -1857.273071289 -1857.264404297 -1857.262695313 -1857.256713867 -1857.244628906 -1857.226562500 -1857.193603516 -1857.148193359 -1857.109619141 -1857.082275391 -1857.061035156 -1857.062988281 -1857.089111328 -1857.100097656 -1857.103149414 -1857.124267578 -1857.158691406 -1857.198120117 -1857.250854492 -1857.309204102 -1857.356811523 -1857.398315430 -1857.446166992 -1857.505859375 -1857.580078125 -1857.669311523 -1857.775878906 -1857.882934570 -1857.984985352 -1858.082275391 -1858.175048828 -1858.256103516 -1858.336059570 -1858.419067383 -1858.525268555 -1858.645019531 -1858.760864258 -1858.885986328 -1859.002319336 -1859.099853516 -1859.190429688 -1859.276000977
-1858.056518555 -1857.968383789 -1857.909179688 -1857.931762695 -1857.905029297 -1857.864379883 -1857.883056641 -1857.874877930 -1857.880615234 -1857.814208984 -1857.674438477 -1857.523437500 -1857.504394531 -1857.431152344 -1857.314819336 -1857.317871094 -1857.338012695 -1857.361572266 -1857.352905273 -1857.373657227 -1857.397705078 -1857.406127930 -1857.461791992 -1857.529174805 -1857.558471680 -1857.582397461 -1857.598022461 -1857.579833984 -1857.532836914 -1857.482910156 -1857.424682617 -1857.365356445 -1857.306518555 -1857.252075195 -1857.197265625 -1857.143920898 -1857.104614258 -1857.076538086 -1857.047241211 -1857.026245117 -1857.020019531 -1857.012084961 -1856.993652344 -1856.973144531 -1856.948242188 -1856.907958984 -1856.873535156 -1856.866210938 -1856.879272461 -1856.914428711 -1856.966186523 -1857.000610352 -1857.016723633 -1857.034423828 -1857.046386719 -1857.075317383 -1857.135864258 -1857.181640625 -1857.234130859 -1857.288940430 -1857.338500977 -1857.405395508 -1857.474365234 -1857.535522461 -1857.619262695 -1857.716552734 -1857.803100586 -1857.895263672 -1857.997192383 -1858.087524414 -1858.158325195 -1858.226928711 -1858.328857422 -1858.458007813 -1858.581298828 -1858.718261719 -1858.857177734 -1858.971435547 -1859.052368164 -1859.127563477
-1858.006347656 -1857.918579102 -1857.854125977 -1857.795166016 -1857.777343750 -1857.803466797 -1857.809448242 -1857.770629883 -1857.750732422 -1857.694702148 -1857.539916992 -1857.430053711 -1857.358520508 -1857.321899414 -1857.287353516 -1857.262451172 -1857.234741211 -1857.247070313 -1857.223022461 -1857.222534180 -1857.230224609 -1857.240478516 -1857.286132813 -1857.339477539 -1857.384887695 -1857.432006836 -1857.444213867 -1857.419555664 -1857.366455078 -1857.307006836 -1857.252563477 -1857.200317383 -1857.145751953 -1857.091674805 -1857.029541016 -1856.970703125 -1856.926879883 -1856.898681641 -1856.872558594 -1856.845947266 -1856.832031250 -1856.820556641 -1856.797851563 -1856.776123047 -1856.763916016 -1856.754150391 -1856.750366211 -1856.766235352 -1856.797607422 -1856.833129883 -1856.869750977 -1856.899902344 -1856.922607422 -1856.943725586 -1856.967773438 -1857.006225586 -1857.040649414 -1857.079589844 -1857.141845703 -1857.200439453 -1857.254516602 -1857.327880859 -1857.376953125 -1857.402099609 -1857.459106445 -1857.541015625 -1857.633544922 -1857.730224609 -1857.840942383 -1857.928955078 -1857.996948242 -1858.089843750 -1858.165771484 -1858.274658203 -1858.406127930 -1858.547973633 -1858.674072266 -1858.796386719 -1858.886230469 -1858.972290039
-1857.953491211 -1857.867553711 -1857.810180664 -1857.726928711 -1857.690551758 -1857.670654297 -1857.693359375 -1857.670043945 -1857.642700195 -1857.555297852 -1857.442260742 -1857.403930664 -1857.332641602 -1857.260253906 -1857.217163086 -1857.175292969 -1857.134399414 -1857.136352539 -1857.096191406 -1857.078613281 -1857.091308594 -1857.122802734 -1857.161987305 -1857.204956055 -1857.234497070 -1857.267822266 -1857.273803711 -1857.246215820 -1857.187011719 -1857.127685547 -1857.076171875 -1857.028930664 -1856.984130859 -1856.944458008 -1856.900268555 -1856.855834961 -1856.812377930 -1856.771728516 -1856.732666016 -1856.687500000 -1856.649169922 -1856.625732422 -1856.597900391 -1856.576416016 -1856.585083008 -1856.611083984 -1856.644409180 -1856.680419922 -1856.712646484 -1856.740478516 -1856.766357422 -1856.793823242 -1856.818847656 -1856.840087891 -1856.874511719 -1856.922729492 -1856.953369141 -1856.982910156 -1857.034179688 -1857.096069336 -1857.164550781 -1857.232910156 -1857.274291992 -1857.285522461 -1857.320312500 -1857.385253906 -1857.473876953 -1857.581176758 -1857.702636719 -1857.788940430 -1857.856079102 -1857.915039063 -1857.997802734 -1858.132934570 -1858.252563477 -1858.391113281 -1858.535522461 -1858.667846680 -1858.780517578 -1858.872192383
-1857.814819336 -1857.806518555 -1857.731567383 -1857.670532227 -1857.618652344 -1857.577148438 -1857.582763672 -1857.575073242 -1857.554931641 -1857.470458984 -1857.405029297 -1857.288208008 -1857.281616211 -1857.203491211 -1857.081420898 -1857.039306641 -1857.023925781 -1857.021850586 -1856.994140625 -1856.970214844 -1856.968383789 -1856.963745117 -1856.995971680 -1857.066162109 -1857.096313477 -1857.108032227 -1857.115478516 -1857.086425781 -1857.026123047 -1856.961791992 -1856.911621094 -1856.873046875 -1856.843627930 -1856.820556641 -1856.797607422 -1856.762207031 -1856.710327148 -1856.655029297 -1856.599975586 -1856.539306641 -1856.490722656 -1856.457641602 -1856.424926758 -1856.416870117 -1856.445800781 -1856.488403320 -1856.540771484 -1856.584594727 -1856.607299805 -1856.627319336 -1856.649658203 -1856.678588867 -1856.713745117 -1856.753662109 -1856.798095703 -1856.844848633 -1856.880126953 -1856.913818359 -1856.954711914 -1857.006469727 -1857.074584961 -1857.118041992 -1857.137695313 -1857.145996094 -1857.171142578 -1857.229980469 -1857.330322266 -1857.441040039 -1857.522705078 -1857.606323242 -1857.713378906 -1857.772460938 -1857.852416992 -1857.991210938 -1858.112670898 -1858.246948242 -1858.396484375 -1858.531494141 -1858.672607422 -1858.791259766
-1857.681518555 -1857.686889648 -1857.597778320 -1857.526489258 -1857.453857422 -1857.434814453 -1857.439208984 -1857.424560547 -1857.443481445 -1857.411254883 -1857.374877930 -1857.255615234 -1857.170654297 -1857.121582031 -1857.076293945 -1857.024047852 -1856.944580078 -1856.905517578 -1856.863281250 -1856.843627930 -1856.841918945 -1856.835449219 -1856.842895508 -1856.898071289 -1856.941162109 -1856.961547852 -1856.962402344 -1856.928344727 -1856.870239258 -1856.811035156 -1856.752319336 -1856.713867188 -1856.691528320 -1856.676757813 -1856.672729492 -1856.654907227 -1856.606201172 -1856.536376953 -1856.456176758 -1856.377075195 -1856.307617188 -1856.257080078 -1856.249511719 -1856.282714844 -1856.325195313 -1856.366577148 -1856.406738281 -1856.445922852 -1856.478271484 -1856.501098633 -1856.527587891 -1856.565307617 -1856.606567383 -1856.648803711 -1856.694213867 -1856.731201172 -1856.759887695 -1856.799072266 -1856.851562500 -1856.905883789 -1856.945800781 -1856.977661133 -1856.983520508 -1856.973999023 -1856.982666016 -1857.040405273 -1857.140625000 -1857.252929688 -1857.370849609 -1857.475708008 -1857.555297852 -1857.614868164 -1857.713012695 -1857.860961914 -1857.992675781 -1858.128295898 -1858.282958984 -1858.427612305 -1858.588256836 -1858.719116211
-1857.569580078 -1857.510742188 -1857.455322266 -1857.418457031 -1857.325073242 -1857.344482422 -1857.345214844 -1857.334106445 -1857.326660156 -1857.366577148 -1857.344604492 -1857.304809570 -1857.241577148 -1857.161865234 -1857.072387695 -1856.965087891 -1856.867065430 -1856.802001953 -1856.735473633 -1856.707031250 -1856.706054688 -1856.695678711 -1856.700561523 -1856.736938477 -1856.767211914 -1856.796630859 -1856.808105469 -1856.784301758 -1856.732299805 -1856.666259766 -1856.599853516 -1856.551513672 -1856.532348633 -1856.529541016 -1856.517089844 -1856.472412109 -1856.401489258 -1856.320312500 -1856.243408203 -1856.177124023 -1856.132568359 -1856.124755859 -1856.143310547 -1856.170288086 -1856.204711914 -1856.242553711 -1856.271728516 -1856.293945313 -1856.314086914 -1856.343383789 -1856.381835938 -1856.417236328 -1856.454101563 -1856.495483398 -1856.537353516 -1856.587280273 -1856.637695313 -1856.684204102 -1856.718261719 -1856.757690430 -1856.803466797 -1856.833129883 -1856.840576172 -1856.852172852 -1856.856445313 -1856.880737305 -1856.945678711 -1857.042602539 -1857.159057617 -1857.276000977 -1857.377563477 -1857.473144531 -1857.602294922 -1857.739257813 -1857.877075195 -1858.013427734 -1858.167236328 -1858.323242188 -1858.487304688 -1858.637451172
-1857.377929688 -1857.338867188 -1857.334350586 -1857.361083984 -1857.267944336 -1857.244018555 -1857.244995117 -1857.286254883 -1857.258911133 -1857.307250977 -1857.293579102 -1857.198486328 -1857.200439453 -1857.121704102 -1857.007202148 -1856.869506836 -1856.747192383 -1856.676147461 -1856.600585938 -1856.544189453 -1856.529418945 -1856.528930664 -1856.554809570 -1856.585937500 -1856.617431641 -1856.640869141 -1856.648803711 -1856.630371094 -1856.583496094 -1856.512084961 -1856.439697266 -1856.385986328 -1856.349121094 -1856.317626953 -1856.285522461 -1856.224487305 -1856.152832031 -1856.092529297 -1856.028808594 -1855.980224609 -1855.963745117 -1855.980957031 -1856.021240234 -1856.054687500 -1856.077880859 -1856.100952148 -1856.122192383 -1856.128540039 -1856.128906250 -1856.147460938 -1856.182250977 -1856.228393555 -1856.281372070 -1856.328369141 -1856.376831055 -1856.432495117 -1856.482421875 -1856.533081055 -1856.588867188 -1856.659301758 -1856.705200195 -1856.732788086 -1856.737792969 -1856.751708984 -1856.730834961 -1856.721191406 -1856.774658203 -1856.849731445 -1856.954589844 -1857.099243164 -1857.238525391 -1857.369628906 -1857.506347656 -1857.639038086 -1857.777954102 -1857.910034180 -1858.056518555 -1858.211791992 -1858.387329102 -1858.551269531
-1857.362182617 -1857.376220703 -1857.389648438 -1857.357299805 -1857.275146484 -1857.226318359 -1857.206665039 -1857.258178711 -1857.234252930 -1857.213867188 -1857.213623047 -1857.174804688 -1857.078979492 -1857.004150391 -1856.879272461 -1856.738891602 -1856.614013672 -1856.526245117 -1856.469970703 -1856.447143555 -1856.434570313 -1856.429321289 -1856.422241211 -1856.430786133 -1856.453735352 -1856.474975586 -1856.483398438 -1856.470092773 -1856.443725586 -1856.392700195 -1856.323242188 -1856.259765625 -1856.202270508 -1856.132812500 -1856.065673828 -1856.007934570 -1855.945190430 -1855.875122070 -1855.832519531 -1855.815063477 -1855.807250977 -1855.830322266 -1855.878540039 -1855.919311523 -1855.945922852 -1855.960205078 -1855.958374023 -1855.949096680 -1855.932617188 -1855.941528320 -1856.000244141 -1856.062988281 -1856.100830078 -1856.158325195 -1856.226806641 -1856.278808594 -1856.320434570 -1856.366210938 -1856.414672852 -1856.484619141 -1856.538330078 -1856.590820313 -1856.629028320 -1856.656127930 -1856.658447266 -1856.664184570 -1856.691406250 -1856.747070313 -1856.859985352 -1856.996459961 -1857.125610352 -1857.263061523 -1857.393188477 -1857.516967773 -1857.646972656 -1857.781372070 -1857.922363281 -1858.064453125 -1858.237548828 -1858.407470703
-1857.387329102 -1857.391723633 -1857.363647461 -1857.304565430 -1857.268920898 -1857.226684570 -1857.193115234 -1857.203613281 -1857.204345703 -1857.175903320 -1857.104492188 -1857.030639648 -1856.975341797 -1856.861450195 -1856.704711914 -1856.617919922 -1856.510375977 -1856.441894531 -1856.351318359 -1856.312377930 -1856.309326172 -1856.291870117 -1856.308959961 -1856.315795898 -1856.314941406 -1856.320312500 -1856.323852539 -1856.316162109 -1856.300781250 -1856.269287109 -1856.203002930 -1856.121337891 -1856.038940430 -1855.963256836 -1855.891845703 -1855.825317383 -1855.774169922 -1855.725952148 -1855.692626953 -1855.689208984 -1855.684082031 -1855.687866211 -1855.733276367 -1855.788208008 -1855.814697266 -1855.819091797 -1855.814941406 -1855.794677734 -1855.789306641 -1855.833496094 -1855.891479492 -1855.934814453 -1855.973388672 -1856.030395508 -1856.099121094 -1856.142944336 -1856.157836914 -1856.159179688 -1856.186889648 -1856.222167969 -1856.251586914 -1856.303833008 -1856.376953125 -1856.424560547 -1856.483398438 -1856.545166016 -1856.603881836 -1856.675415039 -1856.779663086 -1856.896484375 -1856.996337891 -1857.127563477 -1857.265625000 -1857.397094727 -1857.510253906 -1857.649536133 -1857.794799805 -1857.932373047 -1858.065673828 -1858.224121094
-1857.437500000 -1857.390747070 -1857.313964844 -1857.287841797 -1857.238159180 -1857.203125000 -1857.213867188 -1857.218750000 -1857.193603516 -1857.134155273 -1857.026123047 -1856.930908203 -1856.843505859 -1856.702270508 -1856.607421875 -1856.557617188 -1856.455444336 -1856.352294922 -1856.233886719 -1856.191406250 -1856.184692383 -1856.183959961 -1856.180786133 -1856.182861328 -1856.172851563 -1856.164428711 -1856.168945313 -1856.175170898 -1856.175781250 -1856.166992188 -1856.114135742 -1856.028686523 -1855.930908203 -1855.823608398 -1855.738769531 -1855.673828125 -1855.620971680 -1855.586059570 -1855.570312500 -1855.571899414 -1855.563598633 -1855.569213867 -1855.607788086 -1855.640136719 -1855.664550781 -1855.683349609 -1855.687622070 -1855.675415039 -1855.676269531 -1855.723144531 -1855.783935547 -1855.828613281 -1855.868896484 -1855.929077148 -1855.996704102 -1856.025756836 -1856.006591797 -1855.966308594 -1855.948852539 -1855.962158203 -1855.990478516 -1856.039306641 -1856.133300781 -1856.225463867 -1856.308837891 -1856.409667969 -1856.514892578 -1856.604492188 -1856.689941406 -1856.792968750 -1856.894775391 -1857.008422852 -1857.132568359 -1857.270385742 -1857.408081055 -1857.535522461 -1857.663818359 -1857.776367188 -1857.888061523 -1858.036621094
-1857.465209961 -1857.370483398 -1857.282592773 -1857.237792969 -1857.199584961 -1857.187011719 -1857.209960938 -1857.182373047 -1857.147094727 -1857.076049805 -1856.979370117 -1856.888793945 -1856.795532227 -1856.641967773 -1856.544189453 -1856.435302734 -1856.318847656 -1856.273681641 -1856.169921875 -1856.115478516 -1856.092285156 -1856.070190430 -1856.050048828 -1856.032348633 -1856.006713867 -1855.993041992 -1856.012329102 -1856.053100586 -1856.084472656 -1856.084472656 -1856.020996094 -1855.929443359 -1855.844360352 -1855.769287109 -1855.694458008 -1855.617797852 -1855.559814453 -1855.521850586 -1855.497314453 -1855.486572266 -1855.490600586 -1855.510986328 -1855.536499023 -1855.559082031 -1855.583740234 -1855.603393555 -1855.609619141 -1855.608520508 -1855.602905273 -1855.614257813 -1855.672607422 -1855.739379883 -1855.790405273 -1855.850341797 -1855.900756836 -1855.907470703 -1855.888427734 -1855.855590820 -1855.788208008 -1855.759399414 -1855.782592773 -1855.829833984 -1855.941894531 -1856.072143555 -1856.208862305 -1856.347412109 -1856.465332031 -1856.548461914 -1856.626831055 -1856.726074219 -1856.839111328 -1856.955932617 -1857.066162109 -1857.183105469 -1857.288330078 -1857.389404297 -1857.484497070 -1857.597778320 -1857.722900391 -1857.866577148
-1857.525268555 -1857.414306641 -1857.315673828 -1857.236328125 -1857.193847656 -1857.176513672 -1857.163208008 -1857.135742188 -1857.094604492 -1857.037109375 -1856.962402344 -1856.895751953 -1856.786499023 -1856.655883789 -1856.532836914 -1856.383666992 -1856.276245117 -1856.180297852 -1856.120117188 -1856.059082031 -1855.969848633 -1855.926757813 -1855.893920898 -1855.850585938 -1855.809936523 -1855.803466797 -1855.828247070 -1855.871459961 -1855.928344727 -1855.956665039 -1855.910644531 -1855.824584961 -1855.739135742 -1855.661499023 -1855.604858398 -1855.573730469 -1855.548461914 -1855.515258789 -1855.486328125 -1855.466430664 -1855.454345703 -1855.454467773 -1855.464477539 -1855.481811523 -1855.499633789 -1855.513427734 -1855.531738281 -1855.549072266 -1855.550415039 -1855.553344727 -1855.579101563 -1855.631591797 -1855.696777344 -1855.754638672 -1855.789184570 -1855.785766602 -1855.762451172 -1855.710449219 -1855.675903320 -1855.677734375 -1855.716186523 -1855.795654297 -1855.910522461 -1856.040649414 -1856.177368164 -1856.294311523 -1856.387817383 -1856.470947266 -1856.543701172 -1856.631713867 -1856.749145508 -1856.873657227 -1856.990356445 -1857.088989258 -1857.166748047 -1857.256469727 -1857.347412109 -1857.460449219 -1857.597900391 -1857.748779297
-1857.544433594 -1857.460327148 -1857.368774414 -1857.265747070 -1857.187744141 -1857.159667969 -1857.132446289 -1857.124755859 -1857.085083008 -1856.973632813 -1856.901123047 -1856.836791992 -1856.758422852 -1856.682617188 -1856.569824219 -1856.435302734 -1856.293579102 -1856.157592773 -1856.077270508 -1855.990478516 -1855.918090820 -1855.854736328 -1855.798339844 -1855.755126953 -1855.745239258 -1855.701416016 -1855.700805664 -1855.726318359 -1855.765014648 -1855.790283203 -1855.763671875 -1855.711791992 -1855.656250000 -1855.593505859 -1855.537353516 -1855.501342773 -1855.477050781 -1855.451904297 -1855.426757813 -1855.409179688 -1855.402343750 -1855.399658203 -1855.404052734 -1855.421508789 -1855.440917969 -1855.458496094 -1855.481689453 -1855.502197266 -1855.502197266 -1855.500488281 -1855.522094727 -1855.562500000 -1855.610473633 -1855.659057617 -1855.690917969 -1855.688964844 -1855.676391602 -1855.660522461 -1855.653930664 -1855.664306641 -1855.717773438 -1855.806152344 -1855.909790039 -1856.027099609 -1856.139770508 -1856.227783203 -1856.299316406 -1856.370483398 -1856.432128906 -1856.524169922 -1856.640747070 -1856.767700195 -1856.879760742 -1856.981567383 -1857.055786133 -1857.139648438 -1857.239868164 -1857.373046875 -1857.529052734 -1857.690307617
-1857.518188477 -1857.460327148 -1857.356567383 -1857.263305664 -1857.182373047 -1857.147705078 -1857.125122070 -1857.085327148 -1856.993408203 -1856.854370117 -1856.813598633 -1856.731201172 -1856.612060547 -1856.632446289 -1856.533325195 -1856.400634766 -1856.244750977 -1856.107666016 -1856.021850586 -1855.949707031 -1855.882812500 -1855.804687500 -1855.742309570 -1855.688110352 -1855.637939453 -1855.615112305 -1855.608032227 -1855.616943359 -1855.638671875 -1855.648559570 -1855.630981445 -1855.585083008 -1855.537109375 -1855.489990234 -1855.447875977 -1855.422729492 -1855.410278320 -1855.393798828 -1855.371826172 -1855.354125977 -1855.342773438 -1855.332641602 -1855.332153320 -1855.351562500 -1855.380981445 -1855.410278320 -1855.433959961 -1855.446777344 -1855.442504883 -1855.432250977 -1855.437988281 -1855.464233398 -1855.506713867 -1855.558959961 -1855.597900391 -1855.606933594 -1855.600952148 -1855.599121094 -1855.609985352 -1855.644409180 -1855.712402344 -1855.795410156 -1855.874877930 -1855.963256836 -1856.052246094 -1856.130004883 -1856.189453125 -1856.254882813 -1856.350463867 -1856.431884766 -1856.539062500 -1856.668090820 -1856.771728516 -1856.873046875 -1856.949340820 -1857.048217773 -1857.161499023 -1857.304321289 -1857.468872070 -1857.643798828
-1857.487670898 -1857.412475586 -1857.317504883 -1857.223999023 -1857.158691406 -1857.119140625 -1857.089233398 -1856.997558594 -1856.853149414 -1856.748779297 -1856.691162109 -1856.647583008 -1856.578002930 -1856.567260742 -1856.438476563 -1856.278686523 -1856.116455078 -1856.003540039 -1855.922363281 -1855.878906250 -1855.828247070 -1855.761962891 -1855.694946289 -1855.627685547 -1855.582397461 -1855.568481445 -1855.543579102 -1855.534179688 -1855.524780273 -1855.505615234 -1855.485595703 -1855.453491211 -1855.420288086 -1855.388793945 -1855.353759766 -1855.327392578 -1855.314697266 -1855.305664063 -1855.297729492 -1855.289916992 -1855.281738281 -1855.277954102 -1855.286132813 -1855.312133789 -1855.341430664 -1855.361083984 -1855.381225586 -1855.388671875 -1855.371948242 -1855.359130859 -1855.369262695 -1855.404907227 -1855.462280273 -1855.514892578 -1855.545166016 -1855.550048828 -1855.545288086 -1855.550292969 -1855.570312500 -1855.618652344 -1855.685913086 -1855.757080078 -1855.819458008 -1855.889160156 -1855.969848633 -1856.038085938 -1856.097778320 -1856.166381836 -1856.258789063 -1856.358398438 -1856.446533203 -1856.574584961 -1856.667236328 -1856.764160156 -1856.849975586 -1856.951538086 -1857.062866211 -1857.211059570 -1857.381591797 -1857.565185547
-1857.459960938 -1857.340454102 -1857.260131836 -1857.197387695 -1857.119506836 -1857.062377930 -1857.011352539 -1856.904296875 -1856.804565430 -1856.682495117 -1856.596679688 -1856.534057617 -1856.506469727 -1856.423095703 -1856.293823242 -1856.146972656 -1855.967651367 -1855.857788086 -1855.822143555 -1855.803710938 -1855.768310547 -1855.716796875 -1855.648681641 -1855.585327148 -1855.542114258 -1855.500244141 -1855.487182617 -1855.471435547 -1855.444091797 -1855.402832031 -1855.370849609 -1855.348876953 -1855.317871094 -1855.282958984 -1855.248657227 -1855.219970703 -1855.206176758 -1855.204833984 -1855.206054688 -1855.209228516 -1855.214843750 -1855.220581055 -1855.235351563 -1855.265258789 -1855.291381836 -1855.304077148 -1855.318237305 -1855.324951172 -1855.315917969 -1855.319213867 -1855.351196289 -1855.398803711 -1855.454101563 -1855.501098633 -1855.518066406 -1855.512817383 -1855.504516602 -1855.512573242 -1855.536254883 -1855.578125000 -1855.637207031 -1855.702514648 -1855.754150391 -1855.809570313 -1855.880126953 -1855.943725586 -1856.003784180 -1856.077758789 -1856.170654297 -1856.258544922 -1856.354858398 -1856.476196289 -1856.572998047 -1856.665405273 -1856.752929688 -1856.855957031 -1856.959350586 -1857.097900391 -1857.263061523 -1857.461914063
-1857.419433594 -1857.332763672 -1857.239990234 -1857.147216797 -1857.084106445 -1857.004638672 -1856.944458008 -1856.817871094 -1856.711059570 -1856.629760742 -1856.554077148 -1856.498413086 -1856.421142578 -1856.309204102 -1856.165039063 -1856.010253906 -1855.888427734 -1855.810668945 -1855.787475586 -1855.763183594 -1855.717407227 -1855.655151367 -1855.592895508 -1855.532348633 -1855.481445313 -1855.457641602 -1855.433837891 -1855.387573242 -1855.337280273 -1855.298950195 -1855.272827148 -1855.252929688 -1855.223754883 -1855.184570313 -1855.140502930 -1855.100585938 -1855.076416016 -1855.071533203 -1855.080322266 -1855.103881836 -1855.134155273 -1855.151611328 -1855.162597656 -1855.183959961 -1855.204956055 -1855.220214844 -1855.244750977 -1855.265625000 -1855.272827148 -1855.289306641 -1855.333374023 -1855.385864258 -1855.429931641 -1855.457763672 -1855.454956055 -1855.432617188 -1855.412475586 -1855.419311523 -1855.448486328 -1855.493896484 -1855.552734375 -1855.617065430 -1855.675170898 -1855.729858398 -1855.794921875 -1855.862060547 -1855.920410156 -1855.981689453 -1856.071044922 -1856.179809570 -1856.273437500 -1856.382202148 -1856.484497070 -1856.579711914 -1856.662109375 -1856.760498047 -1856.867431641 -1856.989013672 -1857.141601563 -1857.349975586
-1857.397460938 -1857.299926758 -1857.224243164 -1857.123657227 -1857.015625000 -1856.930908203 -1856.875244141 -1856.780517578 -1856.708984375 -1856.625244141 -1856.539306641 -1856.449584961 -1856.362182617 -1856.231567383 -1856.096069336 -1855.956787109 -1855.863403320 -1855.795166016 -1855.747070313 -1855.708618164 -1855.660278320 -1855.597167969 -1855.541503906 -1855.493530273 -1855.437500000 -1855.391723633 -1855.349975586 -1855.296142578 -1855.250976563 -1855.218017578 -1855.195556641 -1855.169677734 -1855.131103516 -1855.080932617 -1855.038574219 -1855.018554688 -1854.998291016 -1854.973022461 -1854.969848633 -1854.991821289 -1855.023681641 -1855.044433594 -1855.048583984 -1855.058349609 -1855.078247070 -1855.104003906 -1855.139892578 -1855.179931641 -1855.212646484 -1855.241333008 -1855.282836914 -1855.333862305 -1855.364379883 -1855.352539063 -1855.319824219 -1855.289672852 -1855.268310547 -1855.274658203 -1855.315429688 -1855.375976563 -1855.443115234 -1855.510742188 -1855.575195313 -1855.629150391 -1855.690307617 -1855.770385742 -1855.850341797 -1855.906616211 -1855.985351563 -1856.090209961 -1856.182006836 -1856.275512695 -1856.370483398 -1856.474853516 -1856.565429688 -1856.666503906 -1856.774047852 -1856.894287109 -1857.046630859 -1857.253662109
-1857.375488281 -1857.266601563 -1857.168090820 -1857.048828125 -1856.948120117 -1856.880859375 -1856.837646484 -1856.777832031 -1856.698364258 -1856.614624023 -1856.521240234 -1856.424560547 -1856.321777344 -1856.188598633 -1856.053833008 -1855.930297852 -1855.840942383 -1855.755249023 -1855.708007813 -1855.667236328 -1855.618652344 -1855.560058594 -1855.497680664 -1855.437866211 -1855.367675781 -1855.309204102 -1855.262329102 -1855.226074219 -1855.191894531 -1855.157470703 -1855.131225586 -1855.101562500 -1855.054809570 -1854.998535156 -1854.956542969 -1854.933715820 -1854.910034180 -1854.885620117 -1854.880493164 -1854.895263672 -1854.919555664 -1854.939819336 -1854.947509766 -1854.951171875 -1854.959350586 -1854.979614258 -1855.015136719 -1855.062500000 -1855.110595703 -1855.149658203 -1855.191772461 -1855.239868164 -1855.260742188 -1855.230468750 -1855.175170898 -1855.131958008 -1855.105590820 -1855.112792969 -1855.166503906 -1855.239624023 -1855.314941406 -1855.379394531 -1855.437744141 -1855.494384766 -1855.552978516 -1855.637939453 -1855.735961914 -1855.814819336 -1855.884033203 -1855.989990234 -1856.089111328 -1856.171752930 -1856.257324219 -1856.366210938 -1856.480712891 -1856.591430664 -1856.698242188 -1856.819458008 -1856.966552734 -1857.167846680
-1857.297119141 -1857.190307617 -1857.070068359 -1856.958496094 -1856.885375977 -1856.839233398 -1856.804077148 -1856.765502930 -1856.693237305 -1856.611572266 -1856.509521484 -1856.396362305 -1856.278930664 -1856.145141602 -1856.010131836 -1855.878295898 -1855.780761719 -1855.717041016 -1855.672241211 -1855.630737305 -1855.583007813 -1855.524902344 -1855.447753906 -1855.369750977 -1855.305908203 -1855.247192383 -1855.200439453 -1855.177734375 -1855.152709961 -1855.116943359 -1855.081420898 -1855.046020508 -1854.994018555 -1854.932617188 -1854.883300781 -1854.843994141 -1854.813842773 -1854.799438477 -1854.796630859 -1854.802490234 -1854.814819336 -1854.825195313 -1854.827392578 -1854.822631836 -1854.821899414 -1854.839843750 -1854.876953125 -1854.925292969 -1854.984741211 -1855.046875000 -1855.101806641 -1855.142456055 -1855.151977539 -1855.119506836 -1855.058593750 -1855.008666992 -1854.983276367 -1854.995239258 -1855.053100586 -1855.128173828 -1855.204589844 -1855.261108398 -1855.312744141 -1855.366088867 -1855.430908203 -1855.516235352 -1855.617553711 -1855.712158203 -1855.783569336 -1855.886230469 -1855.983520508 -1856.071166992 -1856.157226563 -1856.260986328 -1856.389282227 -1856.511352539 -1856.628051758 -1856.746704102 -1856.899780273 -1857.132568359
-1857.169311523 -1857.055175781 -1856.934326172 -1856.834960938 -1856.775268555 -1856.751586914 -1856.742187500 -1856.724243164 -1856.676513672 -1856.600708008 -1856.497436523 -1856.373657227 -1856.232910156 -1856.094726563 -1855.948486328 -1855.825317383 -1855.730346680 -1855.683837891 -1855.644653320 -1855.610229492 -1855.558837891 -1855.488403320 -1855.395996094 -1855.310302734 -1855.246093750 -1855.189819336 -1855.160522461 -1855.146118164 -1855.120849609 -1855.079345703 -1855.024414063 -1854.969360352 -1854.925659180 -1854.878540039 -1854.834106445 -1854.794189453 -1854.755981445 -1854.728027344 -1854.713500977 -1854.710571289 -1854.718383789 -1854.728881836 -1854.732299805 -1854.726806641 -1854.718872070 -1854.723022461 -1854.746826172 -1854.792480469 -1854.863159180 -1854.942993164 -1855.011596680 -1855.051879883 -1855.053833008 -1855.014648438 -1854.950561523 -1854.899902344 -1854.885620117 -1854.915527344 -1854.975708008 -1855.040893555 -1855.100097656 -1855.156616211 -1855.209838867 -1855.253662109 -1855.302612305 -1855.382080078 -1855.468750000 -1855.573242188 -1855.659667969 -1855.769042969 -1855.875366211 -1855.968261719 -1856.059448242 -1856.162475586 -1856.287597656 -1856.418212891 -1856.549072266 -1856.688110352 -1856.857299805 -1857.065063477
-1856.971435547 -1856.858276367 -1856.759033203 -1856.685913086 -1856.641479492 -1856.635131836 -1856.644165039 -1856.632934570 -1856.621337891 -1856.545166016 -1856.449096680 -1856.322265625 -1856.157104492 -1856.006103516 -1855.861083984 -1855.746826172 -1855.673217773 -1855.643188477 -1855.614379883 -1855.578247070 -1855.520141602 -1855.437011719 -1855.329833984 -1855.231689453 -1855.168823242 -1855.124511719 -1855.113037109 -1855.102539063 -1855.070556641 -1855.009887695 -1854.942749023 -1854.889648438 -1854.844116211 -1854.801879883 -1854.762451172 -1854.721557617 -1854.679077148 -1854.647827148 -1854.632568359 -1854.630371094 -1854.632690430 -1854.633178711 -1854.627685547 -1854.609130859 -1854.588012695 -1854.580200195 -1854.593383789 -1854.638305664 -1854.722412109 -1854.826416016 -1854.909912109 -1854.953369141 -1854.952636719 -1854.912597656 -1854.858154297 -1854.815551758 -1854.806884766 -1854.838256836 -1854.891967773 -1854.947631836 -1855.003173828 -1855.057861328 -1855.106567383 -1855.148559570 -1855.165771484 -1855.220458984 -1855.322998047 -1855.414794922 -1855.516845703 -1855.647583008 -1855.766845703 -1855.859741211 -1855.985717773 -1856.083251953 -1856.204223633 -1856.339233398 -1856.486083984 -1856.640991211 -1856.830200195 -1857.049072266
-1856.778564453 -1856.665771484 -1856.594604492 -1856.531738281 -1856.501342773 -1856.543823242 -1856.537353516 -1856.524536133 -1856.536010742 -1856.463623047 -1856.368286133 -1856.242065430 -1856.081420898 -1855.937255859 -1855.800659180 -1855.687988281 -1855.635864258 -1855.602539063 -1855.561279297 -1855.513427734 -1855.446777344 -1855.339721680 -1855.223754883 -1855.132446289 -1855.083862305 -1855.044677734 -1855.029541016 -1855.016113281 -1854.976318359 -1854.906494141 -1854.840454102 -1854.791503906 -1854.750488281 -1854.703735352 -1854.661376953 -1854.628051758 -1854.597778320 -1854.573608398 -1854.559570313 -1854.544921875 -1854.511230469 -1854.477539063 -1854.464843750 -1854.454589844 -1854.441772461 -1854.441772461 -1854.460571289 -1854.501220703 -1854.576416016 -1854.678955078 -1854.768554688 -1854.813964844 -1854.818603516 -1854.802734375 -1854.775878906 -1854.740722656 -1854.724975586 -1854.747558594 -1854.788085938 -1854.837890625 -1854.891113281 -1854.941406250 -1854.975219727 -1855.012329102 -1855.034545898 -1855.081542969 -1855.187988281 -1855.300170898 -1855.410766602 -1855.540893555 -1855.673217773 -1855.798706055 -1855.912109375 -1856.020019531 -1856.137695313 -1856.267333984 -1856.411621094 -1856.571044922 -1856.760986328 -1856.977172852
-1856.683349609 -1856.592895508 -1856.532958984 -1856.461914063 -1856.443847656 -1856.459960938 -1856.445434570 -1856.413940430 -1856.427001953 -1856.341552734 -1856.258300781 -1856.147705078 -1856.022827148 -1855.892944336 -1855.768066406 -1855.656494141 -1855.592651367 -1855.547607422 -1855.503051758 -1855.445190430 -1855.364257813 -1855.242553711 -1855.129638672 -1855.043457031 -1854.997192383 -1854.971313477 -1854.962646484 -1854.932861328 -1854.883300781 -1854.814819336 -1854.760009766 -1854.709960938 -1854.659667969 -1854.619506836 -1854.583496094 -1854.552734375 -1854.524169922 -1854.495849609 -1854.465454102 -1854.419799805 -1854.354614258 -1854.297363281 -1854.277465820 -1854.283203125 -1854.299072266 -1854.327026367 -1854.360473633 -1854.400756836 -1854.460815430 -1854.543579102 -1854.624145508 -1854.662841797 -1854.664550781 -1854.659179688 -1854.647338867 -1854.618652344 -1854.604248047 -1854.622924805 -1854.658081055 -1854.713500977 -1854.782470703 -1854.838012695 -1854.860717773 -1854.902343750 -1854.941162109 -1855.006591797 -1855.142456055 -1855.229248047 -1855.337402344 -1855.476684570 -1855.630004883 -1855.775512695 -1855.890869141 -1855.979858398 -1856.077148438 -1856.180053711 -1856.305175781 -1856.454101563 -1856.641235352 -1856.855712891
-1856.619018555 -1856.554687500 -1856.458496094 -1856.413085938 -1856.411499023 -1856.354980469 -1856.335693359 -1856.331176758 -1856.321777344 -1856.258422852 -1856.189819336 -1856.089477539 -1855.980957031 -1855.867309570 -1855.741333008 -1855.633422852 -1855.562988281 -1855.506347656 -1855.447509766 -1855.368652344 -1855.263305664 -1855.138183594 -1855.040893555 -1854.983398438 -1854.911865234 -1854.896118164 -1854.882690430 -1854.841064453 -1854.794067383 -1854.731689453 -1854.665405273 -1854.615600586 -1854.573608398 -1854.536987305 -1854.501953125 -1854.466796875 -1854.432128906 -1854.393310547 -1854.342285156 -1854.276977539 -1854.206054688 -1854.155395508 -1854.147094727 -1854.173217773 -1854.217041016 -1854.267456055 -1854.312866211 -1854.348999023 -1854.382080078 -1854.424804688 -1854.473632813 -1854.504394531 -1854.513916016 -1854.511962891 -1854.495117188 -1854.473144531 -1854.454833984 -1854.460205078 -1854.505126953 -1854.586547852 -1854.688598633 -1854.777587891 -1854.830078125 -1854.868164063 -1854.919189453 -1855.006347656 -1855.105957031 -1855.213256836 -1855.324707031 -1855.463134766 -1855.609008789 -1855.743652344 -1855.836181641 -1855.911010742 -1855.990600586 -1856.072753906 -1856.224853516 -1856.396118164 -1856.579467773 -1856.790771484
-1856.548950195 -1856.508422852 -1856.433227539 -1856.381958008 -1856.347290039 -1856.326782227 -1856.301269531 -1856.291870117 -1856.254760742 -1856.202270508 -1856.138549805 -1856.048217773 -1855.939697266 -1855.811157227 -1855.689941406 -1855.587036133 -1855.506103516 -1855.444702148 -1855.380371094 -1855.284790039 -1855.166015625 -1855.042602539 -1854.970947266 -1854.919311523 -1854.846557617 -1854.816528320 -1854.787719727 -1854.742675781 -1854.696777344 -1854.637451172 -1854.577026367 -1854.528320313 -1854.482788086 -1854.445678711 -1854.413696289 -1854.374389648 -1854.326293945 -1854.271972656 -1854.210205078 -1854.141601563 -1854.075927734 -1854.039550781 -1854.053344727 -1854.104980469 -1854.171386719 -1854.238281250 -1854.294433594 -1854.331542969 -1854.346435547 -1854.352050781 -1854.363647461 -1854.371093750 -1854.369506836 -1854.367431641 -1854.355102539 -1854.326782227 -1854.308227539 -1854.333374023 -1854.400390625 -1854.495971680 -1854.597290039 -1854.692382813 -1854.772583008 -1854.824829102 -1854.889038086 -1854.962646484 -1855.044921875 -1855.150512695 -1855.285644531 -1855.422363281 -1855.551757813 -1855.666625977 -1855.742675781 -1855.815673828 -1855.893798828 -1856.021484375 -1856.172485352 -1856.328247070 -1856.476562500 -1856.695434570
-1856.409667969 -1856.389404297 -1856.338989258 -1856.345947266 -1856.329711914 -1856.314208984 -1856.295166016 -1856.305786133 -1856.268066406 -1856.210571289 -1856.116821289 -1856.015380859 -1855.874877930 -1855.729248047 -1855.615356445 -1855.515014648 -1855.431152344 -1855.378295898 -1855.307739258 -1855.200073242 -1855.078613281 -1854.987304688 -1854.942260742 -1854.887451172 -1854.815795898 -1854.742553711 -1854.691772461 -1854.633056641 -1854.563842773 -1854.483520508 -1854.424682617 -1854.394653320 -1854.371093750 -1854.344848633 -1854.317993164 -1854.279907227 -1854.227539063 -1854.163208008 -1854.093139648 -1854.031860352 -1853.983642578 -1853.960083008 -1853.984008789 -1854.046875000 -1854.123535156 -1854.206787109 -1854.283325195 -1854.329467773 -1854.330078125 -1854.300659180 -1854.277099609 -1854.261596680 -1854.247680664 -1854.241333008 -1854.223510742 -1854.200195313 -1854.209838867 -1854.286376953 -1854.368041992 -1854.437011719 -1854.524536133 -1854.611694336 -1854.689086914 -1854.754272461 -1854.829467773 -1854.910522461 -1855.007324219 -1855.124267578 -1855.243896484 -1855.348632813 -1855.443359375 -1855.536865234 -1855.622314453 -1855.719116211 -1855.826293945 -1855.931152344 -1856.098022461 -1856.234985352 -1856.412475586 -1856.614257813
-1856.313110352 -1856.304565430 -1856.283691406 -1856.303222656 -1856.299438477 -1856.309082031 -1856.281494141 -1856.336669922 -1856.327514648 -1856.280639648 -1856.192504883 -1856.050170898 -1855.875488281 -1855.703857422 -1855.574707031 -1855.480834961 -1855.389038086 -1855.345947266 -1855.264648438 -1855.158081055 -1855.052246094 -1854.961914063 -1854.886108398 -1854.842041016 -1854.761596680 -1854.700317383 -1854.628417969 -1854.528442383 -1854.428344727 -1854.336547852 -1854.273803711 -1854.245483398 -1854.243652344 -1854.246337891 -1854.232421875 -1854.197998047 -1854.146118164 -1854.073974609 -1853.995117188 -1853.939941406 -1853.905273438 -1853.901489258 -1853.945556641 -1854.002319336 -1854.076782227 -1854.185302734 -1854.280029297 -1854.337768555 -1854.339599609 -1854.286987305 -1854.224121094 -1854.174804688 -1854.141113281 -1854.129516602 -1854.118408203 -1854.112670898 -1854.139648438 -1854.222045898 -1854.302612305 -1854.363281250 -1854.439331055 -1854.511840820 -1854.572875977 -1854.654541016 -1854.752929688 -1854.851074219 -1854.949829102 -1855.062988281 -1855.165161133 -1855.254760742 -1855.338256836 -1855.432617188 -1855.523071289 -1855.634155273 -1855.766845703 -1855.907958984 -1856.040893555 -1856.198364258 -1856.367431641 -1856.538330078
-1856.298095703 -1856.296142578 -1856.281005859 -1856.297363281 -1856.326538086 -1856.357910156 -1856.372192383 -1856.448242188 -1856.454589844 -1856.424804688 -1856.347412109 -1856.173339844 -1855.981933594 -1855.807739258 -1855.650024414 -1855.553344727 -1855.447143555 -1855.375366211 -1855.274414063 -1855.156250000 -1855.047241211 -1854.960571289 -1854.892822266 -1854.833129883 -1854.772583008 -1854.694580078 -1854.594116211 -1854.485961914 -1854.377197266 -1854.300415039 -1854.243286133 -1854.202392578 -1854.193237305 -1854.195190430 -1854.182983398 -1854.147583008 -1854.092895508 -1854.024780273 -1853.957763672 -1853.913085938 -1853.888916016 -1853.882202148 -1853.908935547 -1853.974121094 -1854.066040039 -1854.166259766 -1854.251953125 -1854.303466797 -1854.297607422 -1854.231323242 -1854.151855469 -1854.090332031 -1854.056396484 -1854.051025391 -1854.061767578 -1854.082641602 -1854.122436523 -1854.185302734 -1854.247192383 -1854.312988281 -1854.376098633 -1854.431518555 -1854.481567383 -1854.568847656 -1854.684326172 -1854.806518555 -1854.915039063 -1855.014648438 -1855.107177734 -1855.185302734 -1855.250366211 -1855.338500977 -1855.432495117 -1855.554077148 -1855.712646484 -1855.883300781 -1856.031860352 -1856.178100586 -1856.313964844 -1856.442504883
-1856.375000000 -1856.367309570 -1856.354980469 -1856.360229492 -1856.370971680 -1856.432006836 -1856.497070313 -1856.566650391 -1856.577270508 -1856.549194336 -1856.490600586 -1856.314575195 -1856.138793945 -1855.964843750 -1855.827636719 -1855.703125000 -1855.592407227 -1855.489013672 -1855.370239258 -1855.241821289 -1855.119262695 -1855.014282227 -1854.931396484 -1854.868041992 -1854.802246094 -1854.726562500 -1854.643676758 -1854.556152344 -1854.446777344 -1854.354980469 -1854.279785156 -1854.213867188 -1854.178588867 -1854.159912109 -1854.133544922 -1854.087402344 -1854.037353516 -1853.993652344 -1853.966918945 -1853.965698242 -1853.976684570 -1853.983276367 -1853.992065430 -1854.024902344 -1854.084472656 -1854.155517578 -1854.215820313 -1854.243408203 -1854.223510742 -1854.160400391 -1854.080444336 -1854.011962891 -1853.977661133 -1853.984252930 -1854.021972656 -1854.080322266 -1854.140502930 -1854.203125000 -1854.257080078 -1854.293457031 -1854.316528320 -1854.352172852 -1854.410156250 -1854.515991211 -1854.655029297 -1854.787597656 -1854.900146484 -1854.990478516 -1855.074707031 -1855.148437500 -1855.203857422 -1855.277221680 -1855.374145508 -1855.507202148 -1855.663208008 -1855.840698242 -1855.986450195 -1856.138671875 -1856.258178711 -1856.348999023
-1856.602905273 -1856.578735352 -1856.557739258 -1856.546264648 -1856.503540039 -1856.565429688 -1856.621459961 -1856.687866211 -1856.700317383 -1856.659790039 -1856.585815430 -1856.424926758 -1856.260498047 -1856.110839844 -1855.993774414 -1855.883544922 -1855.776367188 -1855.661865234 -1855.531738281 -1855.394775391 -1855.254150391 -1855.146118164 -1855.085205078 -1854.984252930 -1854.906250000 -1854.845703125 -1854.764526367 -1854.670410156 -1854.553588867 -1854.442504883 -1854.351440430 -1854.268920898 -1854.206176758 -1854.148315430 -1854.086669922 -1854.023925781 -1853.983276367 -1853.977783203 -1854.007324219 -1854.055908203 -1854.093994141 -1854.108398438 -1854.112304688 -1854.128784180 -1854.161010742 -1854.191894531 -1854.206054688 -1854.196411133 -1854.157470703 -1854.090087891 -1854.011596680 -1853.949340820 -1853.919921875 -1853.936645508 -1854.001708984 -1854.088134766 -1854.166503906 -1854.233520508 -1854.269653320 -1854.278320313 -1854.282104492 -1854.308837891 -1854.380615234 -1854.497558594 -1854.649169922 -1854.790405273 -1854.906860352 -1855.002441406 -1855.081420898 -1855.148681641 -1855.203491211 -1855.271606445 -1855.361572266 -1855.487426758 -1855.629394531 -1855.786132813 -1855.946044922 -1856.088623047 -1856.199340820 -1856.278808594
-1856.771484375 -1856.765136719 -1856.721557617 -1856.710937500 -1856.718627930 -1856.736206055 -1856.745727539 -1856.771972656 -1856.766113281 -1856.723632813 -1856.634765625 -1856.502319336 -1856.366821289 -1856.261230469 -1856.173095703 -1856.082153320 -1855.982299805 -1855.863281250 -1855.735107422 -1855.595336914 -1855.442138672 -1855.311279297 -1855.245849609 -1855.161010742 -1855.075073242 -1855.027465820 -1854.949829102 -1854.840576172 -1854.715454102 -1854.587768555 -1854.468994141 -1854.369506836 -1854.274536133 -1854.164550781 -1854.067382813 -1854.001953125 -1853.986083984 -1854.022827148 -1854.091674805 -1854.164672852 -1854.227416992 -1854.269775391 -1854.288940430 -1854.302246094 -1854.315917969 -1854.311279297 -1854.271850586 -1854.210693359 -1854.140625000 -1854.060180664 -1853.983398438 -1853.939086914 -1853.931518555 -1853.968383789 -1854.046264648 -1854.134155273 -1854.219360352 -1854.289062500 -1854.317626953 -1854.311157227 -1854.299682617 -1854.325317383 -1854.396240234 -1854.482788086 -1854.619750977 -1854.772460938 -1854.897094727 -1855.009643555 -1855.108764648 -1855.178710938 -1855.226318359 -1855.285156250 -1855.353637695 -1855.460571289 -1855.594238281 -1855.750976563 -1855.897338867 -1856.037231445 -1856.158325195 -1856.242675781
-1856.998046875 -1856.974243164 -1856.973144531 -1856.948242188 -1856.883178711 -1856.828125000 -1856.768066406 -1856.748046875 -1856.737426758 -1856.715942383 -1856.653808594 -1856.564208984 -1856.473510742 -1856.408203125 -1856.346191406 -1856.275878906 -1856.174194336 -1856.061645508 -1855.945922852 -1855.812866211 -1855.672241211 -1855.532836914 -1855.444091797 -1855.345336914 -1855.283691406 -1855.219970703 -1855.152954102 -1855.053833008 -1854.920654297 -1854.776855469 -1854.637817383 -1854.507690430 -1854.372924805 -1854.228515625 -1854.117431641 -1854.062988281 -1854.066162109 -1854.106445313 -1854.169799805 -1854.251342773 -1854.338134766 -1854.410888672 -1854.453613281 -1854.467895508 -1854.464111328 -1854.434082031 -1854.361572266 -1854.266235352 -1854.170776367 -1854.083129883 -1854.021240234 -1854.006103516 -1854.037353516 -1854.098632813 -1854.174072266 -1854.247436523 -1854.314575195 -1854.374633789 -1854.409301758 -1854.404418945 -1854.367065430 -1854.363525391 -1854.405883789 -1854.448608398 -1854.563110352 -1854.711181641 -1854.846923828 -1854.979370117 -1855.086914063 -1855.167602539 -1855.207153320 -1855.270385742 -1855.342041016 -1855.443725586 -1855.567749023 -1855.707763672 -1855.850952148 -1855.984008789 -1856.105346680 -1856.200195313
-1857.193481445 -1857.179321289 -1857.168823242 -1857.115234375 -1857.001098633 -1856.905151367 -1856.829589844 -1856.794677734 -1856.776855469 -1856.765380859 -1856.732666016 -1856.684448242 -1856.628906250 -1856.569702148 -1856.526123047 -1856.450561523 -1856.349365234 -1856.241821289 -1856.141845703 -1856.023437500 -1855.900024414 -1855.761840820 -1855.651000977 -1855.552001953 -1855.477539063 -1855.428588867 -1855.379760742 -1855.292114258 -1855.158691406 -1854.995727539 -1854.832763672 -1854.673095703 -1854.509399414 -1854.358642578 -1854.244018555 -1854.168334961 -1854.154052734 -1854.181762695 -1854.235961914 -1854.320922852 -1854.414184570 -1854.495239258 -1854.549316406 -1854.570434570 -1854.562133789 -1854.518432617 -1854.442871094 -1854.359375000 -1854.285278320 -1854.229125977 -1854.198120117 -1854.196166992 -1854.234375000 -1854.289306641 -1854.340454102 -1854.389648438 -1854.441162109 -1854.491821289 -1854.519409180 -1854.500854492 -1854.456542969 -1854.426391602 -1854.388671875 -1854.382446289 -1854.466552734 -1854.607177734 -1854.784545898 -1854.951049805 -1855.040039063 -1855.134277344 -1855.178344727 -1855.234008789 -1855.319580078 -1855.430786133 -1855.548217773 -1855.679443359 -1855.811035156 -1855.931396484 -1856.044433594 -1856.129638672
-1857.315917969 -1857.309204102 -1857.308715820 -1857.258911133 -1857.165527344 -1857.066284180 -1857.003173828 -1856.965332031 -1856.922119141 -1856.893554688 -1856.867553711 -1856.827880859 -1856.783447266 -1856.723510742 -1856.683227539 -1856.593872070 -1856.516967773 -1856.405029297 -1856.309082031 -1856.200195313 -1856.084350586 -1855.955200195 -1855.838745117 -1855.740478516 -1855.674804688 -1855.631225586 -1855.587280273 -1855.509033203 -1855.389282227 -1855.238037109 -1855.068237305 -1854.885498047 -1854.695068359 -1854.554931641 -1854.462036133 -1854.341552734 -1854.268554688 -1854.263671875 -1854.287719727 -1854.349487305 -1854.432983398 -1854.510986328 -1854.567993164 -1854.604003906 -1854.621704102 -1854.611328125 -1854.572387695 -1854.521362305 -1854.479248047 -1854.450683594 -1854.427856445 -1854.412719727 -1854.421875000 -1854.451538086 -1854.490478516 -1854.535644531 -1854.580444336 -1854.624633789 -1854.639892578 -1854.601074219 -1854.530395508 -1854.446044922 -1854.362792969 -1854.319824219 -1854.373901367 -1854.506713867 -1854.696655273 -1854.881958008 -1855.012329102 -1855.105834961 -1855.166992188 -1855.223144531 -1855.318603516 -1855.432861328 -1855.549072266 -1855.672119141 -1855.782226563 -1855.879760742 -1855.966308594 -1856.037719727
-1857.413085938 -1857.408081055 -1857.417968750 -1857.400634766 -1857.336914063 -1857.256225586 -1857.180053711 -1857.132080078 -1857.072143555 -1857.026977539 -1857.003051758 -1856.968750000 -1856.917724609 -1856.859252930 -1856.826782227 -1856.771606445 -1856.672119141 -1856.553344727 -1856.444213867 -1856.331909180 -1856.222534180 -1856.112792969 -1856.001708984 -1855.898559570 -1855.828979492 -1855.781372070 -1855.742431641 -1855.682983398 -1855.588134766 -1855.467773438 -1855.321899414 -1855.150390625 -1854.968872070 -1854.828857422 -1854.706665039 -1854.572998047 -1854.467773438 -1854.403442383 -1854.370483398 -1854.382080078 -1854.432739258 -1854.497192383 -1854.557861328 -1854.614624023 -1854.666992188 -1854.704589844 -1854.725341797 -1854.725463867 -1854.703857422 -1854.667114258 -1854.624511719 -1854.584594727 -1854.556152344 -1854.553466797 -1854.593017578 -1854.654785156 -1854.710327148 -1854.746459961 -1854.738403320 -1854.675048828 -1854.547241211 -1854.371704102 -1854.284545898 -1854.252807617 -1854.271240234 -1854.398315430 -1854.598999023 -1854.778808594 -1854.922119141 -1855.030151367 -1855.109130859 -1855.207031250 -1855.319335938 -1855.427856445 -1855.530029297 -1855.638916016 -1855.738037109 -1855.816894531 -1855.875488281 -1855.950683594
-1857.537475586 -1857.544311523 -1857.555175781 -1857.548706055 -1857.502807617 -1857.424438477 -1857.348876953 -1857.313354492 -1857.249511719 -1857.184570313 -1857.129760742 -1857.081298828 -1857.033935547 -1856.992553711 -1856.967041016 -1856.927734375 -1856.824462891 -1856.692504883 -1856.556518555 -1856.441162109 -1856.337280273 -1856.233886719 -1856.123657227 -1856.015502930 -1855.934570313 -1855.884155273 -1855.857666016 -1855.829956055 -1855.765625000 -1855.677368164 -1855.563842773 -1855.424438477 -1855.265136719 -1855.119995117 -1854.983032227 -1854.848022461 -1854.713134766 -1854.588378906 -1854.486328125 -1854.433227539 -1854.442260742 -1854.486328125 -1854.541992188 -1854.605346680 -1854.681152344 -1854.762695313 -1854.830810547 -1854.871948242 -1854.869873047 -1854.821899414 -1854.750732422 -1854.678710938 -1854.620117188 -1854.604492188 -1854.644165039 -1854.715820313 -1854.780395508 -1854.812133789 -1854.794189453 -1854.720336914 -1854.583251953 -1854.370239258 -1854.219116211 -1854.217407227 -1854.180786133 -1854.290527344 -1854.494506836 -1854.666259766 -1854.828979492 -1854.954589844 -1855.062500000 -1855.171752930 -1855.279785156 -1855.385009766 -1855.468627930 -1855.558227539 -1855.662841797 -1855.749023438 -1855.809082031 -1855.902954102
-1857.691284180 -1857.718872070 -1857.731201172 -1857.710327148 -1857.662841797 -1857.592041016 -1857.524658203 -1857.513549805 -1857.463989258 -1857.411376953 -1857.332763672 -1857.259399414 -1857.199584961 -1857.169311523 -1857.131835938 -1857.074951172 -1856.960693359 -1856.821655273 -1856.670898438 -1856.567138672 -1856.475219727 -1856.378173828 -1856.268432617 -1856.151611328 -1856.059814453 -1856.005249023 -1855.981445313 -1855.967895508 -1855.922851563 -1855.857543945 -1855.774536133 -1855.672485352 -1855.542602539 -1855.415527344 -1855.279541016 -1855.121582031 -1854.949829102 -1854.783935547 -1854.632568359 -1854.521850586 -1854.485839844 -1854.511474609 -1854.563842773 -1854.626831055 -1854.705200195 -1854.800415039 -1854.895507813 -1854.961547852 -1854.968994141 -1854.916625977 -1854.831787109 -1854.735595703 -1854.661621094 -1854.643310547 -1854.683471680 -1854.756347656 -1854.823608398 -1854.852172852 -1854.838500977 -1854.786376953 -1854.682739258 -1854.482177734 -1854.208618164 -1854.215820313 -1854.136474609 -1854.242309570 -1854.450073242 -1854.620605469 -1854.786376953 -1854.915161133 -1855.039672852 -1855.126708984 -1855.214477539 -1855.308959961 -1855.405395508 -1855.489379883 -1855.597290039 -1855.693725586 -1855.759643555 -1855.826538086
-1857.861450195 -1857.891601563 -1857.897583008 -1857.867431641 -1857.821899414 -1857.765136719 -1857.737670898 -1857.755249023 -1857.749511719 -1857.725585938 -1857.646362305 -1857.556640625 -1857.494384766 -1857.450317383 -1857.366943359 -1857.268310547 -1857.142456055 -1856.981323242 -1856.836181641 -1856.750976563 -1856.664550781 -1856.565429688 -1856.454223633 -1856.339477539 -1856.245239258 -1856.183593750 -1856.149169922 -1856.134277344 -1856.102539063 -1856.048583984 -1855.980957031 -1855.897949219 -1855.785156250 -1855.657714844 -1855.521850586 -1855.363525391 -1855.179931641 -1854.995483398 -1854.824462891 -1854.680908203 -1854.608276367 -1854.610839844 -1854.648925781 -1854.715698242 -1854.791381836 -1854.867065430 -1854.969848633 -1855.046142578 -1855.057617188 -1855.009765625 -1854.927978516 -1854.837646484 -1854.778564453 -1854.775756836 -1854.824096680 -1854.899169922 -1854.956542969 -1854.971557617 -1854.950561523 -1854.915405273 -1854.833251953 -1854.682250977 -1854.516357422 -1854.353393555 -1854.239013672 -1854.327392578 -1854.480834961 -1854.629272461 -1854.757080078 -1854.881225586 -1855.007568359 -1855.099365234 -1855.173583984 -1855.259277344 -1855.354614258 -1855.440795898 -1855.542236328 -1855.625610352 -1855.685058594 -1855.742675781
-1858.038330078 -1858.056640625 -1858.053833008 -1858.023071289 -1857.992675781 -1857.957885742 -1857.973876953 -1858.004028320 -1858.032104492 -1858.019042969 -1857.968383789 -1857.887451172 -1857.847412109 -1857.802734375 -1857.689697266 -1857.575317383 -1857.435791016 -1857.258178711 -1857.122680664 -1857.014526367 -1856.900634766 -1856.787963867 -1856.677734375 -1856.574584961 -1856.478515625 -1856.399414063 -1856.348754883 -1856.321044922 -1856.291625977 -1856.248291016 -1856.197998047 -1856.132446289 -1856.036987305 -1855.922241211 -1855.789550781 -1855.624633789 -1855.436889648 -1855.260864258 -1855.111083984 -1854.959228516 -1854.817626953 -1854.760742188 -1854.784301758 -1854.835693359 -1854.902709961 -1854.976196289 -1855.062133789 -1855.134643555 -1855.156005859 -1855.127319336 -1855.071166992 -1855.025024414 -1855.012939453 -1855.040405273 -1855.099243164 -1855.161010742 -1855.179443359 -1855.158813477 -1855.114135742 -1855.059814453 -1854.966186523 -1854.852539063 -1854.702148438 -1854.557250977 -1854.471313477 -1854.468383789 -1854.533813477 -1854.636108398 -1854.750000000 -1854.871093750 -1854.983764648 -1855.102661133 -1855.176147461 -1855.253295898 -1855.340698242 -1855.402954102 -1855.480957031 -1855.535034180 -1855.575439453 -1855.626708984
-1858.233398438 -1858.239868164 -1858.234619141 -1858.212280273 -1858.211914063 -1858.203369141 -1858.245483398 -1858.284179688 -1858.323852539 -1858.313842773 -1858.278442383 -1858.202392578 -1858.146850586 -1858.097290039 -1858.002563477 -1857.906616211 -1857.796875000 -1857.660522461 -1857.498779297 -1857.352783203 -1857.169799805 -1857.040771484 -1856.921752930 -1856.814575195 -1856.713623047 -1856.617187500 -1856.546020508 -1856.503662109 -1856.471557617 -1856.437011719 -1856.406738281 -1856.361572266 -1856.294799805 -1856.210083008 -1856.093383789 -1855.937500000 -1855.761230469 -1855.593505859 -1855.447021484 -1855.283813477 -1855.113525391 -1855.001342773 -1854.951660156 -1854.953491211 -1855.010375977 -1855.091796875 -1855.168334961 -1855.230712891 -1855.264648438 -1855.266723633 -1855.258666992 -1855.262695313 -1855.285156250 -1855.325805664 -1855.374267578 -1855.395874023 -1855.369262695 -1855.316650391 -1855.251464844 -1855.169921875 -1855.047729492 -1854.945068359 -1854.833496094 -1854.711547852 -1854.610229492 -1854.576293945 -1854.583374023 -1854.662353516 -1854.779052734 -1854.907226563 -1855.014160156 -1855.115600586 -1855.190551758 -1855.262817383 -1855.334228516 -1855.370727539 -1855.400878906 -1855.418090820 -1855.447387695 -1855.504272461
-1858.435668945 -1858.434204102 -1858.420166016 -1858.420043945 -1858.460205078 -1858.482910156 -1858.555175781 -1858.609008789 -1858.632690430 -1858.607421875 -1858.563110352 -1858.483398438 -1858.413208008 -1858.357177734 -1858.266113281 -1858.172973633 -1858.044433594 -1857.913330078 -1857.728759766 -1857.588012695 -1857.408691406 -1857.276245117 -1857.152221680 -1857.046630859 -1856.949218750 -1856.853759766 -1856.779785156 -1856.729980469 -1856.697143555 -1856.675659180 -1856.670898438 -1856.655639648 -1856.619995117 -1856.554321289 -1856.438964844 -1856.289062500 -1856.131835938 -1855.977294922 -1855.813476563 -1855.619873047 -1855.450195313 -1855.337158203 -1855.230834961 -1855.160888672 -1855.178588867 -1855.236328125 -1855.292724609 -1855.347534180 -1855.391967773 -1855.423095703 -1855.458618164 -1855.500610352 -1855.537109375 -1855.565185547 -1855.578735352 -1855.551391602 -1855.493652344 -1855.423095703 -1855.346435547 -1855.245971680 -1855.125488281 -1855.023681641 -1854.901611328 -1854.782958984 -1854.676513672 -1854.618896484 -1854.609130859 -1854.694213867 -1854.812377930 -1854.940551758 -1855.052490234 -1855.127075195 -1855.202270508 -1855.272094727 -1855.327880859 -1855.332519531 -1855.346313477 -1855.343261719 -1855.363403320 -1855.445068359
-1858.599365234 -1858.597656250 -1858.590209961 -1858.613281250 -1858.677612305 -1858.742187500 -1858.835815430 -1858.914550781 -1858.947631836 -1858.921142578 -1858.854858398 -1858.748046875 -1858.659057617 -1858.572387695 -1858.460205078 -1858.343139648 -1858.205566406 -1858.055908203 -1857.901367188 -1857.767700195 -1857.632446289 -1857.504882813 -1857.382690430 -1857.281738281 -1857.197021484 -1857.128540039 -1857.072265625 -1857.030273438 -1857.013427734 -1857.014404297 -1857.028930664 -1857.034179688 -1857.020751953 -1856.967773438 -1856.848876953 -1856.682495117 -1856.509643555 -1856.350585938 -1856.176513672 -1855.969970703 -1855.789184570 -1855.634399414 -1855.480346680 -1855.382690430 -1855.367919922 -1855.402465820 -1855.448608398 -1855.503295898 -1855.559692383 -1855.612182617 -1855.666259766 -1855.715332031 -1855.746704102 -1855.754028320 -1855.731445313 -1855.681762695 -1855.614990234 -1855.526611328 -1855.427490234 -1855.305297852 -1855.186889648 -1855.083984375 -1854.955932617 -1854.833740234 -1854.716186523 -1854.638305664 -1854.647949219 -1854.729858398 -1854.843017578 -1854.961669922 -1855.071777344 -1855.144775391 -1855.212402344 -1855.280273438 -1855.327026367 -1855.335815430 -1855.350219727 -1855.347290039 -1855.369873047 -1855.466796875
-1858.739501953 -1858.753784180 -1858.770385742 -1858.812255859 -1858.903198242 -1859.015869141 -1859.134155273 -1859.226684570 -1859.266845703 -1859.253173828 -1859.182739258 -1859.052978516 -1858.935668945 -1858.800903320 -1858.663452148 -1858.520507813 -1858.389770508 -1858.254760742 -1858.131713867 -1858.002807617 -1857.856811523 -1857.726806641 -1857.612060547 -1857.512939453 -1857.437500000 -1857.387695313 -1857.345214844 -1857.320312500 -1857.333129883 -1857.362670898 -1857.382446289 -1857.368041992 -1857.343383789 -1857.305297852 -1857.207153320 -1857.051879883 -1856.881347656 -1856.723510742 -1856.556396484 -1856.349853516 -1856.130249023 -1855.923583984 -1855.746093750 -1855.641357422 -1855.616943359 -1855.632324219 -1855.668579102 -1855.731201172 -1855.800659180 -1855.863769531 -1855.913452148 -1855.940795898 -1855.946166992 -1855.929199219 -1855.876953125 -1855.798339844 -1855.707885742 -1855.600585938 -1855.482666016 -1855.347534180 -1855.217651367 -1855.105957031 -1854.979003906 -1854.828491211 -1854.695312500 -1854.634521484 -1854.666625977 -1854.787109375 -1854.898437500 -1854.992187500 -1855.090576172 -1855.183837891 -1855.249389648 -1855.301025391 -1855.340576172 -1855.365234375 -1855.368530273 -1855.365356445 -1855.422119141 -1855.482543945
-1858.912719727 -1858.956542969 -1859.010009766 -1859.085083008 -1859.193725586 -1859.320068359 -1859.451416016 -1859.561523438 -1859.591064453 -1859.570068359 -1859.486572266 -1859.338378906 -1859.190185547 -1859.029907227 -1858.881469727 -1858.723754883 -1858.577026367 -1858.441406250 -1858.313598633 -1858.195312500 -1858.064331055 -1857.946533203 -1857.839355469 -1857.735717773 -1857.649902344 -1857.595825195 -1857.565673828 -1857.562011719 -1857.596435547 -1857.639648438 -1857.657348633 -1857.627685547 -1857.605590820 -1857.591796875 -1857.522583008 -1857.396606445 -1857.245849609 -1857.094238281 -1856.922851563 -1856.696655273 -1856.443725586 -1856.213867188 -1856.040771484 -1855.956909180 -1855.948242188 -1855.960571289 -1855.986450195 -1856.043457031 -1856.102539063 -1856.147094727 -1856.177246094 -1856.182861328 -1856.159545898 -1856.108398438 -1856.027832031 -1855.917236328 -1855.794677734 -1855.672485352 -1855.543090820 -1855.414306641 -1855.274291992 -1855.145507813 -1854.998779297 -1854.805419922 -1854.664428711 -1854.613403320 -1854.647949219 -1854.794433594 -1854.940307617 -1855.040283203 -1855.128906250 -1855.227294922 -1855.283081055 -1855.318359375 -1855.365966797 -1855.394287109 -1855.390380859 -1855.372070313 -1855.429443359 -1855.502807617
-1859.215087891 -1859.289306641 -1859.363281250 -1859.460937500 -1859.557983398 -1859.678222656 -1859.783203125 -1859.858886719 -1859.871337891 -1859.838867188 -1859.737548828 -1859.585937500 -1859.417358398 -1859.250366211 -1859.102172852 -1858.950439453 -1858.803955078 -1858.670776367 -1858.539306641 -1858.417114258 -1858.290161133 -1858.174072266 -1858.064208984 -1857.946777344 -1857.849243164 -1857.797241211 -1857.779052734 -1857.789794922 -1857.830688477 -1857.868530273 -1857.887573242 -1857.891845703 -1857.882446289 -1857.854125977 -1857.798339844 -1857.706420898 -1857.578247070 -1857.419921875 -1857.221557617 -1856.978515625 -1856.730468750 -1856.519775391 -1856.363037109 -1856.278076172 -1856.263671875 -1856.287841797 -1856.325073242 -1856.370239258 -1856.414184570 -1856.436523438 -1856.442871094 -1856.425537109 -1856.372802734 -1856.283447266 -1856.174194336 -1856.046997070 -1855.908813477 -1855.782226563 -1855.648681641 -1855.512695313 -1855.346313477 -1855.190673828 -1854.992187500 -1854.784667969 -1854.620239258 -1854.550292969 -1854.584716797 -1854.742553711 -1854.944458008 -1855.083984375 -1855.175048828 -1855.256225586 -1855.303588867 -1855.341552734 -1855.374755859 -1855.396484375 -1855.389770508 -1855.362060547 -1855.406127930 -1855.473144531
-1859.634277344 -1859.713623047 -1859.781372070 -1859.877075195 -1859.933105469 -1860.025146484 -1860.086914063 -1860.115112305 -1860.104370117 -1860.069458008 -1859.964477539 -1859.825195313 -1859.662231445 -1859.504760742 -1859.367919922 -1859.238769531 -1859.103759766 -1858.971923828 -1858.838867188 -1858.712036133 -1858.571899414 -1858.436035156 -1858.308349609 -1858.175903320 -1858.085327148 -1858.051025391 -1858.040283203 -1858.052978516 -1858.088989258 -1858.109985352 -1858.110229492 -1858.104980469 -1858.088500977 -1858.062988281 -1858.027954102 -1857.969360352 -1857.862182617 -1857.682006836 -1857.453613281 -1857.211669922 -1856.962646484 -1856.746215820 -1856.600097656 -1856.533325195 -1856.540527344 -1856.574951172 -1856.608520508 -1856.644653320 -1856.681030273 -1856.696777344 -1856.686645508 -1856.646972656 -1856.572265625 -1856.458374023 -1856.321289063 -1856.170776367 -1856.026489258 -1855.903564453 -1855.772094727 -1855.621093750 -1855.431518555 -1855.239868164 -1854.994628906 -1854.770874023 -1854.586914063 -1854.505371094 -1854.549316406 -1854.713867188 -1854.926391602 -1855.093994141 -1855.211181641 -1855.290039063 -1855.344238281 -1855.382812500 -1855.399536133 -1855.403930664 -1855.387939453 -1855.349975586 -1855.365722656 -1855.412719727
-1860.028808594 -1860.088989258 -1860.146728516 -1860.225219727 -1860.251220703 -1860.317871094 -1860.370971680 -1860.389282227 -1860.370727539 -1860.338500977 -1860.251953125 -1860.130493164 -1859.985839844 -1859.834716797 -1859.709594727 -1859.593627930 -1859.466186523 -1859.343872070 -1859.197875977 -1859.043090820 -1858.862060547 -1858.695068359 -1858.539794922 -1858.405273438 -1858.335449219 -1858.324218750 -1858.320312500 -1858.335937500 -1858.360107422 -1858.362060547 -1858.339355469 -1858.312866211 -1858.281860352 -1858.254882813 -1858.232910156 -1858.205810547 -1858.114624023 -1857.906250000 -1857.661376953 -1857.425659180 -1857.151123047 -1856.911865234 -1856.776000977 -1856.721679688 -1856.742675781 -1856.790405273 -1856.834228516 -1856.877319336 -1856.917358398 -1856.933349609 -1856.911254883 -1856.850219727 -1856.747070313 -1856.605468750 -1856.452636719 -1856.303833008 -1856.165039063 -1856.043457031 -1855.902832031 -1855.725341797 -1855.512695313 -1855.301513672 -1855.045410156 -1854.806640625 -1854.621459961 -1854.539062500 -1854.580444336 -1854.732299805 -1854.934204102 -1855.110473633 -1855.246215820 -1855.340087891 -1855.395141602 -1855.420898438 -1855.418334961 -1855.403442383 -1855.365966797 -1855.323120117 -1855.315429688 -1855.333618164
-1860.344116211 -1860.377075195 -1860.418701172 -1860.481567383 -1860.527709961 -1860.596801758 -1860.666259766 -1860.703002930 -1860.718505859 -1860.712402344 -1860.640014648 -1860.509887695 -1860.399536133 -1860.244628906 -1860.105224609 -1859.976806641 -1859.833496094 -1859.693847656 -1859.521362305 -1859.327514648 -1859.105102539 -1858.912963867 -1858.740600586 -1858.618530273 -1858.578125000 -1858.590576172 -1858.590942383 -1858.602050781 -1858.611572266 -1858.593139648 -1858.552368164 -1858.511474609 -1858.473876953 -1858.444580078 -1858.421508789 -1858.401977539 -1858.315307617 -1858.090454102 -1857.840820313 -1857.620971680 -1857.349243164 -1857.109863281 -1856.990600586 -1856.945190430 -1856.953369141 -1856.991455078 -1857.043090820 -1857.098632813 -1857.146850586 -1857.163085938 -1857.128540039 -1857.039916992 -1856.902099609 -1856.743774414 -1856.592041016 -1856.447387695 -1856.312988281 -1856.185180664 -1856.036010742 -1855.843017578 -1855.618530273 -1855.405273438 -1855.170532227 -1854.932861328 -1854.742675781 -1854.646240234 -1854.663574219 -1854.779296875 -1854.952148438 -1855.115600586 -1855.243774414 -1855.334960938 -1855.377563477 -1855.384887695 -1855.355468750 -1855.320434570 -1855.273559570 -1855.237426758 -1855.225585938 -1855.233642578
