-1862.178222656 -1861.996337891 -1861.811767578 -1861.651733398 -1861.524658203 -1861.420654297 -1861.327514648 -1861.230468750 -1861.115356445 -1860.977416992 -1860.825317383 -1860.671752930 -1860.514038086 -1860.349609375 -1860.174194336 -1859.988403320 -1859.793090820 -1859.595092773 -1859.399658203 -1859.219604492 -1859.066406250 -1858.946533203 -1858.862060547 -1858.808837891 -1858.772460938 -1858.738525391 -1858.701049805 -1858.661010742 -1858.623291016 -1858.591430664 -1858.562744141 -1858.533935547 -1858.503784180 -1858.475341797 -1858.450439453 -1858.423095703 -1858.393798828 -1858.360961914 -1858.329956055 -1858.314086914 -1858.306640625 -1858.301147461 -1858.302856445 -1858.308837891 -1858.311157227 -1858.304199219 -1858.286499023 -1858.260864258 -1858.237182617 -1858.226440430 -1858.231689453 -1858.247924805 -1858.266845703 -1858.293945312 -1858.258789062 -1858.189331055 -1858.085937500 -1857.983520508 -1857.894775391 -1857.816894531 -1857.749145508 -1857.678833008 -1857.618164062 -1857.572387695 -1857.566894531 -1857.581420898 -1857.629638672 -1857.715332031 -1857.810913086 -1857.897949219 -1857.963256836 -1858.002807617 -1858.004272461 -1857.981567383 -1857.941650391 -1857.890136719 -1857.831787109 -1857.772216797 -1857.720703125 -1857.686401367 -1857.673950195 -1857.676879883 -1857.685180664 -1857.691162109 -1857.688964844 -1857.674316406 -1857.648315430 -1857.614868164 -1857.576660156 -1857.537109375 -1857.500732422 -1857.470947266 -1857.446655273 -1857.423583984 -1857.405395508 -1857.394653320 -1857.394409180 -1857.414794922 -1857.453979492 -1857.501708984 -1857.546386719 -1857.582153320 -1857.609008789 -1857.632690430 -1857.670410156 -1857.731201172 -1857.817871094 -1857.928222656 -1858.055908203 -1858.188110352 -1858.310302734 -1858.411865234 -1858.490478516 -1858.551757812 -1858.607788086 -1858.676147461 -1858.772827148 -1858.890747070 -1859.018188477 -1859.143188477 -1859.258300781 -1859.361450195 -1859.465576172 -1859.575317383 -1859.688964844 -1859.812866211 -1859.940673828 -1860.080322266
-1862.250976562 -1862.072021484 -1861.878906250 -1861.705444336 -1861.557250977 -1861.427612305 -1861.312866211 -1861.202636719 -1861.079833984 -1860.940307617 -1860.798461914 -1860.651855469 -1860.501464844 -1860.340820312 -1860.165283203 -1859.979248047 -1859.790405273 -1859.604003906 -1859.423339844 -1859.262573242 -1859.118286133 -1858.993286133 -1858.896606445 -1858.827514648 -1858.771972656 -1858.725219727 -1858.682739258 -1858.640625000 -1858.603637695 -1858.575317383 -1858.551025391 -1858.526123047 -1858.503906250 -1858.486572266 -1858.471069336 -1858.454833984 -1858.423583984 -1858.354003906 -1858.303100586 -1858.323364258 -1858.293701172 -1858.260620117 -1858.247436523 -1858.242309570 -1858.230102539 -1858.204711914 -1858.174316406 -1858.139282227 -1858.096191406 -1858.083984375 -1858.109985352 -1858.132690430 -1858.154907227 -1858.143066406 -1858.085815430 -1858.010498047 -1857.915771484 -1857.812622070 -1857.734252930 -1857.667480469 -1857.600708008 -1857.551391602 -1857.513427734 -1857.497558594 -1857.504272461 -1857.531127930 -1857.599853516 -1857.666137695 -1857.724121094 -1857.784423828 -1857.834106445 -1857.856201172 -1857.848144531 -1857.820800781 -1857.779418945 -1857.729125977 -1857.671508789 -1857.613037109 -1857.562011719 -1857.526367188 -1857.508300781 -1857.501586914 -1857.501464844 -1857.503295898 -1857.499755859 -1857.488037109 -1857.467773438 -1857.438842773 -1857.402587891 -1857.362915039 -1857.325439453 -1857.292114258 -1857.260864258 -1857.235473633 -1857.225585938 -1857.223510742 -1857.229736328 -1857.259521484 -1857.304809570 -1857.353515625 -1857.404174805 -1857.451171875 -1857.487060547 -1857.514892578 -1857.558105469 -1857.613525391 -1857.691528320 -1857.796752930 -1857.918945312 -1858.041870117 -1858.158813477 -1858.260498047 -1858.343017578 -1858.418212891 -1858.491333008 -1858.573242188 -1858.671997070 -1858.787475586 -1858.905395508 -1859.022827148 -1859.133300781 -1859.235839844 -1859.340820312 -1859.446289062 -1859.553222656 -1859.675415039 -1859.811523438 -1859.959106445
-1862.355346680 -1862.186401367 -1861.973388672 -1861.763671875 -1861.573364258 -1861.403198242 -1861.263671875 -1861.157104492 -1861.038940430 -1860.912475586 -1860.799560547 -1860.681274414 -1860.549194336 -1860.403320312 -1860.223999023 -1860.034912109 -1859.855590820 -1859.678222656 -1859.502075195 -1859.343261719 -1859.201904297 -1859.070190430 -1858.962890625 -1858.874389648 -1858.792602539 -1858.720092773 -1858.665405273 -1858.625122070 -1858.593139648 -1858.569213867 -1858.548217773 -1858.523803711 -1858.502563477 -1858.490722656 -1858.483642578 -1858.471679688 -1858.432983398 -1858.366577148 -1858.302490234 -1858.266967773 -1858.244750977 -1858.199584961 -1858.180786133 -1858.175781250 -1858.162841797 -1858.102539062 -1858.027343750 -1858.033447266 -1858.003540039 -1857.954223633 -1857.971801758 -1857.994750977 -1858.007690430 -1857.962524414 -1857.880493164 -1857.782348633 -1857.692138672 -1857.588012695 -1857.532104492 -1857.475585938 -1857.459960938 -1857.459594727 -1857.445068359 -1857.462524414 -1857.482055664 -1857.518920898 -1857.576660156 -1857.634765625 -1857.670532227 -1857.704589844 -1857.727783203 -1857.727416992 -1857.703125000 -1857.661499023 -1857.609252930 -1857.555175781 -1857.497680664 -1857.445068359 -1857.395996094 -1857.351196289 -1857.317504883 -1857.292114258 -1857.273071289 -1857.264404297 -1857.262695312 -1857.256713867 -1857.244628906 -1857.226562500 -1857.193603516 -1857.148193359 -1857.109619141 -1857.082275391 -1857.061035156 -1857.062988281 -1857.089111328 -1857.100097656 -1857.103149414 -1857.124267578 -1857.158691406 -1857.198120117 -1857.250854492 -1857.309204102 -1857.356811523 -1857.398315430 -1857.446166992 -1857.505859375 -1857.580078125 -1857.669311523 -1857.775878906 -1857.882934570 -1857.984985352 -1858.082275391 -1858.175048828 -1858.256103516 -1858.336059570 -1858.419067383 -1858.525268555 -1858.645019531 -1858.760864258 -1858.885986328 -1859.002319336 -1859.099853516 -1859.190429688 -1859.276000977 -1859.362060547 -1859.479125977 -1859.637451172 -1859.803466797
-1862.436401367 -1862.234375000 -1862.048095703 -1861.830810547 -1861.638427734 -1861.452270508 -1861.273315430 -1861.142211914 -1861.033447266 -1860.937744141 -1860.839721680 -1860.729370117 -1860.604125977 -1860.462646484 -1860.286010742 -1860.103027344 -1859.927490234 -1859.764038086 -1859.594482422 -1859.428466797 -1859.277465820 -1859.138549805 -1859.005615234 -1858.885009766 -1858.788330078 -1858.720947266 -1858.661254883 -1858.615722656 -1858.585815430 -1858.559936523 -1858.539306641 -1858.516723633 -1858.493774414 -1858.471313477 -1858.455932617 -1858.436645508 -1858.378540039 -1858.290161133 -1858.202514648 -1858.143432617 -1858.107299805 -1858.098999023 -1858.101806641 -1858.094848633 -1858.056518555 -1857.968383789 -1857.909179688 -1857.931762695 -1857.905029297 -1857.864379883 -1857.883056641 -1857.874877930 -1857.880615234 -1857.814208984 -1857.674438477 -1857.523437500 -1857.504394531 -1857.431152344 -1857.314819336 -1857.317871094 -1857.338012695 -1857.361572266 -1857.352905273 -1857.373657227 -1857.397705078 -1857.406127930 -1857.461791992 -1857.529174805 -1857.558471680 -1857.582397461 -1857.598022461 -1857.579833984 -1857.532836914 -1857.482910156 -1857.424682617 -1857.365356445 -1857.306518555 -1857.252075195 -1857.197265625 -1857.143920898 -1857.104614258 -1857.076538086 -1857.047241211 -1857.026245117 -1857.020019531 -1857.012084961 -1856.993652344 -1856.973144531 -1856.948242188 -1856.907958984 -1856.873535156 -1856.866210938 -1856.879272461 -1856.914428711 -1856.966186523 -1857.000610352 -1857.016723633 -1857.034423828 -1857.046386719 -1857.075317383 -1857.135864258 -1857.181640625 -1857.234130859 -1857.288940430 -1857.338500977 -1857.405395508 -1857.474365234 -1857.535522461 -1857.619262695 -1857.716552734 -1857.803100586 -1857.895263672 -1857.997192383 -1858.087524414 -1858.158325195 -1858.226928711 -1858.328857422 -1858.458007812 -1858.581298828 -1858.718261719 -1858.857177734 -1858.971435547 -1859.052368164 -1859.127563477 -1859.233520508 -1859.319458008 -1859.461791992 -1859.637207031
-1862.520385742 -1862.358032227 -1862.154418945 -1861.920898438 -1861.723388672 -1861.535766602 -1861.341796875 -1861.194458008 -1861.073974609 -1860.951171875 -1860.830078125 -1860.718017578 -1860.619140625 -1860.514526367 -1860.370483398 -1860.201538086 -1860.025512695 -1859.854125977 -1859.674316406 -1859.487915039 -1859.316406250 -1859.170898438 -1859.041137695 -1858.922607422 -1858.823974609 -1858.740112305 -1858.664672852 -1858.618408203 -1858.590820312 -1858.561523438 -1858.534545898 -1858.510009766 -1858.483764648 -1858.447875977 -1858.414550781 -1858.370361328 -1858.279907227 -1858.176879883 -1858.085327148 -1858.029907227 -1857.988891602 -1857.976928711 -1858.018676758 -1858.029296875 -1858.006347656 -1857.918579102 -1857.854125977 -1857.795166016 -1857.777343750 -1857.803466797 -1857.809448242 -1857.770629883 -1857.750732422 -1857.694702148 -1857.539916992 -1857.430053711 -1857.358520508 -1857.321899414 -1857.287353516 -1857.262451172 -1857.234741211 -1857.247070312 -1857.223022461 -1857.222534180 -1857.230224609 -1857.240478516 -1857.286132812 -1857.339477539 -1857.384887695 -1857.432006836 -1857.444213867 -1857.419555664 -1857.366455078 -1857.307006836 -1857.252563477 -1857.200317383 -1857.145751953 -1857.091674805 -1857.029541016 -1856.970703125 -1856.926879883 -1856.898681641 -1856.872558594 -1856.845947266 -1856.832031250 -1856.820556641 -1856.797851562 -1856.776123047 -1856.763916016 -1856.754150391 -1856.750366211 -1856.766235352 -1856.797607422 -1856.833129883 -1856.869750977 -1856.899902344 -1856.922607422 -1856.943725586 -1856.967773438 -1857.006225586 -1857.040649414 -1857.079589844 -1857.141845703 -1857.200439453 -1857.254516602 -1857.327880859 -1857.376953125 -1857.402099609 -1857.459106445 -1857.541015625 -1857.633544922 -1857.730224609 -1857.840942383 -1857.928955078 -1857.996948242 -1858.089843750 -1858.165771484 -1858.274658203 -1858.406127930 -1858.547973633 -1858.674072266 -1858.796386719 -1858.886230469 -1858.972290039 -1859.053833008 -1859.154174805 -1859.281738281 -1859.434570312
-1862.593505859 -1862.434448242 -1862.236206055 -1862.018310547 -1861.820312500 -1861.634277344 -1861.430053711 -1861.255981445 -1861.097167969 -1860.944580078 -1860.825927734 -1860.735961914 -1860.624633789 -1860.510375977 -1860.388427734 -1860.248168945 -1860.080566406 -1859.903808594 -1859.712402344 -1859.516357422 -1859.336181641 -1859.190917969 -1859.062988281 -1858.935668945 -1858.827148438 -1858.752319336 -1858.672485352 -1858.604003906 -1858.569824219 -1858.540893555 -1858.508178711 -1858.472778320 -1858.434326172 -1858.391601562 -1858.352172852 -1858.295776367 -1858.198486328 -1858.099487305 -1857.992553711 -1857.933715820 -1857.898803711 -1857.903198242 -1857.954711914 -1857.969116211 -1857.953491211 -1857.867553711 -1857.810180664 -1857.726928711 -1857.690551758 -1857.670654297 -1857.693359375 -1857.670043945 -1857.642700195 -1857.555297852 -1857.442260742 -1857.403930664 -1857.332641602 -1857.260253906 -1857.217163086 -1857.175292969 -1857.134399414 -1857.136352539 -1857.096191406 -1857.078613281 -1857.091308594 -1857.122802734 -1857.161987305 -1857.204956055 -1857.234497070 -1857.267822266 -1857.273803711 -1857.246215820 -1857.187011719 -1857.127685547 -1857.076171875 -1857.028930664 -1856.984130859 -1856.944458008 -1856.900268555 -1856.855834961 -1856.812377930 -1856.771728516 -1856.732666016 -1856.687500000 -1856.649169922 -1856.625732422 -1856.597900391 -1856.576416016 -1856.585083008 -1856.611083984 -1856.644409180 -1856.680419922 -1856.712646484 -1856.740478516 -1856.766357422 -1856.793823242 -1856.818847656 -1856.840087891 -1856.874511719 -1856.922729492 -1856.953369141 -1856.982910156 -1857.034179688 -1857.096069336 -1857.164550781 -1857.232910156 -1857.274291992 -1857.285522461 -1857.320312500 -1857.385253906 -1857.473876953 -1857.581176758 -1857.702636719 -1857.788940430 -1857.856079102 -1857.915039062 -1857.997802734 -1858.132934570 -1858.252563477 -1858.391113281 -1858.535522461 -1858.667846680 -1858.780517578 -1858.872192383 -1858.956787109 -1859.039184570 -1859.141967773 -1859.273071289
-1862.607666016 -1862.461791992 -1862.309326172 -1862.122680664 -1861.928222656 -1861.723022461 -1861.508300781 -1861.315551758 -1861.138671875 -1861.001708984 -1860.888305664 -1860.774047852 -1860.664062500 -1860.544799805 -1860.410400391 -1860.263427734 -1860.098632812 -1859.923583984 -1859.730468750 -1859.529174805 -1859.350585938 -1859.199340820 -1859.065063477 -1858.940307617 -1858.820800781 -1858.720703125 -1858.646118164 -1858.593627930 -1858.563598633 -1858.531494141 -1858.485107422 -1858.427001953 -1858.371948242 -1858.328735352 -1858.273437500 -1858.197875977 -1858.092651367 -1857.982177734 -1857.872924805 -1857.814331055 -1857.786254883 -1857.812255859 -1857.879150391 -1857.877563477 -1857.814819336 -1857.806518555 -1857.731567383 -1857.670532227 -1857.618652344 -1857.577148438 -1857.582763672 -1857.575073242 -1857.554931641 -1857.470458984 -1857.405029297 -1857.288208008 -1857.281616211 -1857.203491211 -1857.081420898 -1857.039306641 -1857.023925781 -1857.021850586 -1856.994140625 -1856.970214844 -1856.968383789 -1856.963745117 -1856.995971680 -1857.066162109 -1857.096313477 -1857.108032227 -1857.115478516 -1857.086425781 -1857.026123047 -1856.961791992 -1856.911621094 -1856.873046875 -1856.843627930 -1856.820556641 -1856.797607422 -1856.762207031 -1856.710327148 -1856.655029297 -1856.599975586 -1856.539306641 -1856.490722656 -1856.457641602 -1856.424926758 -1856.416870117 -1856.445800781 -1856.488403320 -1856.540771484 -1856.584594727 -1856.607299805 -1856.627319336 -1856.649658203 -1856.678588867 -1856.713745117 -1856.753662109 -1856.798095703 -1856.844848633 -1856.880126953 -1856.913818359 -1856.954711914 -1857.006469727 -1857.074584961 -1857.118041992 -1857.137695312 -1857.145996094 -1857.171142578 -1857.229980469 -1857.330322266 -1857.441040039 -1857.522705078 -1857.606323242 -1857.713378906 -1857.772460938 -1857.852416992 -1857.991210938 -1858.112670898 -1858.246948242 -1858.396484375 -1858.531494141 -1858.672607422 -1858.791259766 -1858.893066406 -1858.956542969 -1859.035766602 -1859.206909180
-1862.630493164 -1862.495361328 -1862.355224609 -1862.199584961 -1862.022460938 -1861.815185547 -1861.592041016 -1861.369750977 -1861.190551758 -1861.045410156 -1860.910888672 -1860.791625977 -1860.689697266 -1860.570434570 -1860.434814453 -1860.287109375 -1860.124633789 -1859.947753906 -1859.754760742 -1859.566162109 -1859.394287109 -1859.226684570 -1859.062255859 -1858.912475586 -1858.784301758 -1858.727416992 -1858.701049805 -1858.635986328 -1858.573364258 -1858.525024414 -1858.463378906 -1858.392578125 -1858.332763672 -1858.282958984 -1858.214477539 -1858.131225586 -1858.020996094 -1857.892944336 -1857.742919922 -1857.652343750 -1857.647216797 -1857.608642578 -1857.637329102 -1857.703369141 -1857.681518555 -1857.686889648 -1857.597778320 -1857.526489258 -1857.453857422 -1857.434814453 -1857.439208984 -1857.424560547 -1857.443481445 -1857.411254883 -1857.374877930 -1857.255615234 -1857.170654297 -1857.121582031 -1857.076293945 -1857.024047852 -1856.944580078 -1856.905517578 -1856.863281250 -1856.843627930 -1856.841918945 -1856.835449219 -1856.842895508 -1856.898071289 -1856.941162109 -1856.961547852 -1856.962402344 -1856.928344727 -1856.870239258 -1856.811035156 -1856.752319336 -1856.713867188 -1856.691528320 -1856.676757812 -1856.672729492 -1856.654907227 -1856.606201172 -1856.536376953 -1856.456176758 -1856.377075195 -1856.307617188 -1856.257080078 -1856.249511719 -1856.282714844 -1856.325195312 -1856.366577148 -1856.406738281 -1856.445922852 -1856.478271484 -1856.501098633 -1856.527587891 -1856.565307617 -1856.606567383 -1856.648803711 -1856.694213867 -1856.731201172 -1856.759887695 -1856.799072266 -1856.851562500 -1856.905883789 -1856.945800781 -1856.977661133 -1856.983520508 -1856.973999023 -1856.982666016 -1857.040405273 -1857.140625000 -1857.252929688 -1857.370849609 -1857.475708008 -1857.555297852 -1857.614868164 -1857.713012695 -1857.860961914 -1857.992675781 -1858.128295898 -1858.282958984 -1858.427612305 -1858.588256836 -1858.719116211 -1858.838134766 -1858.909301758 -1858.990112305 -1859.143188477
-1862.660034180 -1862.522094727 -1862.400146484 -1862.223876953 -1862.013549805 -1861.839355469 -1861.644042969 -1861.414428711 -1861.226440430 -1861.078735352 -1860.956787109 -1860.847290039 -1860.734863281 -1860.610473633 -1860.464599609 -1860.304321289 -1860.136840820 -1859.966308594 -1859.793579102 -1859.627929688 -1859.468139648 -1859.312744141 -1859.148315430 -1858.987060547 -1858.858032227 -1858.767822266 -1858.720581055 -1858.673217773 -1858.618408203 -1858.572143555 -1858.505737305 -1858.419067383 -1858.342285156 -1858.271728516 -1858.185180664 -1858.074584961 -1857.928833008 -1857.776489258 -1857.629272461 -1857.526611328 -1857.488403320 -1857.496826172 -1857.508544922 -1857.542358398 -1857.569580078 -1857.510742188 -1857.455322266 -1857.418457031 -1857.325073242 -1857.344482422 -1857.345214844 -1857.334106445 -1857.326660156 -1857.366577148 -1857.344604492 -1857.304809570 -1857.241577148 -1857.161865234 -1857.072387695 -1856.965087891 -1856.867065430 -1856.802001953 -1856.735473633 -1856.707031250 -1856.706054688 -1856.695678711 -1856.700561523 -1856.736938477 -1856.767211914 -1856.796630859 -1856.808105469 -1856.784301758 -1856.732299805 -1856.666259766 -1856.599853516 -1856.551513672 -1856.532348633 -1856.529541016 -1856.517089844 -1856.472412109 -1856.401489258 -1856.320312500 -1856.243408203 -1856.177124023 -1856.132568359 -1856.124755859 -1856.143310547 -1856.170288086 -1856.204711914 -1856.242553711 -1856.271728516 -1856.293945312 -1856.314086914 -1856.343383789 -1856.381835938 -1856.417236328 -1856.454101562 -1856.495483398 -1856.537353516 -1856.587280273 -1856.637695312 -1856.684204102 -1856.718261719 -1856.757690430 -1856.803466797 -1856.833129883 -1856.840576172 -1856.852172852 -1856.856445312 -1856.880737305 -1856.945678711 -1857.042602539 -1857.159057617 -1857.276000977 -1857.377563477 -1857.473144531 -1857.602294922 -1857.739257812 -1857.877075195 -1858.013427734 -1858.167236328 -1858.323242188 -1858.487304688 -1858.637451172 -1858.765014648 -1858.851440430 -1858.933715820 -1859.038452148
-1862.730102539 -1862.592163086 -1862.440673828 -1862.243164062 -1862.028442383 -1861.847045898 -1861.646972656 -1861.434814453 -1861.260375977 -1861.132446289 -1861.026245117 -1860.908203125 -1860.783203125 -1860.644165039 -1860.479736328 -1860.312500000 -1860.150024414 -1859.990966797 -1859.836914062 -1859.693603516 -1859.551635742 -1859.404785156 -1859.254272461 -1859.107421875 -1858.977294922 -1858.873046875 -1858.793212891 -1858.723266602 -1858.662353516 -1858.604003906 -1858.537597656 -1858.465942383 -1858.387939453 -1858.301513672 -1858.193115234 -1858.052734375 -1857.896118164 -1857.765502930 -1857.672973633 -1857.563232422 -1857.481323242 -1857.434082031 -1857.409667969 -1857.409301758 -1857.377929688 -1857.338867188 -1857.334350586 -1857.361083984 -1857.267944336 -1857.244018555 -1857.244995117 -1857.286254883 -1857.258911133 -1857.307250977 -1857.293579102 -1857.198486328 -1857.200439453 -1857.121704102 -1857.007202148 -1856.869506836 -1856.747192383 -1856.676147461 -1856.600585938 -1856.544189453 -1856.529418945 -1856.528930664 -1856.554809570 -1856.585937500 -1856.617431641 -1856.640869141 -1856.648803711 -1856.630371094 -1856.583496094 -1856.512084961 -1856.439697266 -1856.385986328 -1856.349121094 -1856.317626953 -1856.285522461 -1856.224487305 -1856.152832031 -1856.092529297 -1856.028808594 -1855.980224609 -1855.963745117 -1855.980957031 -1856.021240234 -1856.054687500 -1856.077880859 -1856.100952148 -1856.122192383 -1856.128540039 -1856.128906250 -1856.147460938 -1856.182250977 -1856.228393555 -1856.281372070 -1856.328369141 -1856.376831055 -1856.432495117 -1856.482421875 -1856.533081055 -1856.588867188 -1856.659301758 -1856.705200195 -1856.732788086 -1856.737792969 -1856.751708984 -1856.730834961 -1856.721191406 -1856.774658203 -1856.849731445 -1856.954589844 -1857.099243164 -1857.238525391 -1857.369628906 -1857.506347656 -1857.639038086 -1857.777954102 -1857.910034180 -1858.056518555 -1858.211791992 -1858.387329102 -1858.551269531 -1858.689941406 -1858.795410156 -1858.895629883 -1859.009277344
-1862.788330078 -1862.619506836 -1862.452026367 -1862.257324219 -1862.057495117 -1861.844604492 -1861.650878906 -1861.449340820 -1861.271362305 -1861.168701172 -1861.072875977 -1860.961181641 -1860.840942383 -1860.693481445 -1860.523803711 -1860.358276367 -1860.197143555 -1860.034912109 -1859.878417969 -1859.737060547 -1859.597778320 -1859.459350586 -1859.323608398 -1859.187377930 -1859.055908203 -1858.943603516 -1858.854125977 -1858.774658203 -1858.701171875 -1858.633056641 -1858.563232422 -1858.490112305 -1858.390869141 -1858.282348633 -1858.194458008 -1858.079833984 -1857.952880859 -1857.828002930 -1857.692504883 -1857.563720703 -1857.483398438 -1857.434448242 -1857.346313477 -1857.353759766 -1857.362182617 -1857.376220703 -1857.389648438 -1857.357299805 -1857.275146484 -1857.226318359 -1857.206665039 -1857.258178711 -1857.234252930 -1857.213867188 -1857.213623047 -1857.174804688 -1857.078979492 -1857.004150391 -1856.879272461 -1856.738891602 -1856.614013672 -1856.526245117 -1856.469970703 -1856.447143555 -1856.434570312 -1856.429321289 -1856.422241211 -1856.430786133 -1856.453735352 -1856.474975586 -1856.483398438 -1856.470092773 -1856.443725586 -1856.392700195 -1856.323242188 -1856.259765625 -1856.202270508 -1856.132812500 -1856.065673828 -1856.007934570 -1855.945190430 -1855.875122070 -1855.832519531 -1855.815063477 -1855.807250977 -1855.830322266 -1855.878540039 -1855.919311523 -1855.945922852 -1855.960205078 -1855.958374023 -1855.949096680 -1855.932617188 -1855.941528320 -1856.000244141 -1856.062988281 -1856.100830078 -1856.158325195 -1856.226806641 -1856.278808594 -1856.320434570 -1856.366210938 -1856.414672852 -1856.484619141 -1856.538330078 -1856.590820312 -1856.629028320 -1856.656127930 -1856.658447266 -1856.664184570 -1856.691406250 -1856.747070312 -1856.859985352 -1856.996459961 -1857.125610352 -1857.263061523 -1857.393188477 -1857.516967773 -1857.646972656 -1857.781372070 -1857.922363281 -1858.064453125 -1858.237548828 -1858.407470703 -1858.557861328 -1858.689575195 -1858.817138672 -1858.937866211
-1862.830932617 -1862.630371094 -1862.444091797 -1862.245971680 -1862.036010742 -1861.845947266 -1861.656738281 -1861.466186523 -1861.310791016 -1861.203613281 -1861.115722656 -1861.022460938 -1860.918701172 -1860.791381836 -1860.638061523 -1860.459228516 -1860.267456055 -1860.074829102 -1859.893310547 -1859.726928711 -1859.573974609 -1859.431518555 -1859.295043945 -1859.165649414 -1859.049438477 -1858.946289062 -1858.854858398 -1858.763549805 -1858.667602539 -1858.581787109 -1858.509521484 -1858.435058594 -1858.352783203 -1858.264526367 -1858.160644531 -1858.047851562 -1857.948608398 -1857.857543945 -1857.749023438 -1857.633789062 -1857.518676758 -1857.434936523 -1857.378906250 -1857.373413086 -1857.387329102 -1857.391723633 -1857.363647461 -1857.304565430 -1857.268920898 -1857.226684570 -1857.193115234 -1857.203613281 -1857.204345703 -1857.175903320 -1857.104492188 -1857.030639648 -1856.975341797 -1856.861450195 -1856.704711914 -1856.617919922 -1856.510375977 -1856.441894531 -1856.351318359 -1856.312377930 -1856.309326172 -1856.291870117 -1856.308959961 -1856.315795898 -1856.314941406 -1856.320312500 -1856.323852539 -1856.316162109 -1856.300781250 -1856.269287109 -1856.203002930 -1856.121337891 -1856.038940430 -1855.963256836 -1855.891845703 -1855.825317383 -1855.774169922 -1855.725952148 -1855.692626953 -1855.689208984 -1855.684082031 -1855.687866211 -1855.733276367 -1855.788208008 -1855.814697266 -1855.819091797 -1855.814941406 -1855.794677734 -1855.789306641 -1855.833496094 -1855.891479492 -1855.934814453 -1855.973388672 -1856.030395508 -1856.099121094 -1856.142944336 -1856.157836914 -1856.159179688 -1856.186889648 -1856.222167969 -1856.251586914 -1856.303833008 -1856.376953125 -1856.424560547 -1856.483398438 -1856.545166016 -1856.603881836 -1856.675415039 -1856.779663086 -1856.896484375 -1856.996337891 -1857.127563477 -1857.265625000 -1857.397094727 -1857.510253906 -1857.649536133 -1857.794799805 -1857.932373047 -1858.065673828 -1858.224121094 -1858.389038086 -1858.536987305 -1858.688598633 -1858.831420898
-1862.836425781 -1862.631225586 -1862.444458008 -1862.248168945 -1862.058837891 -1861.892456055 -1861.706176758 -1861.513671875 -1861.361083984 -1861.251220703 -1861.171264648 -1861.093872070 -1860.998535156 -1860.874755859 -1860.724731445 -1860.541259766 -1860.324096680 -1860.104980469 -1859.900024414 -1859.717773438 -1859.553344727 -1859.393432617 -1859.239013672 -1859.108154297 -1859.009399414 -1858.910766602 -1858.815917969 -1858.727783203 -1858.620117188 -1858.513305664 -1858.440185547 -1858.384277344 -1858.306640625 -1858.216186523 -1858.134277344 -1858.040039062 -1857.950805664 -1857.876464844 -1857.779541016 -1857.669189453 -1857.592895508 -1857.539062500 -1857.477539062 -1857.449340820 -1857.437500000 -1857.390747070 -1857.313964844 -1857.287841797 -1857.238159180 -1857.203125000 -1857.213867188 -1857.218750000 -1857.193603516 -1857.134155273 -1857.026123047 -1856.930908203 -1856.843505859 -1856.702270508 -1856.607421875 -1856.557617188 -1856.455444336 -1856.352294922 -1856.233886719 -1856.191406250 -1856.184692383 -1856.183959961 -1856.180786133 -1856.182861328 -1856.172851562 -1856.164428711 -1856.168945312 -1856.175170898 -1856.175781250 -1856.166992188 -1856.114135742 -1856.028686523 -1855.930908203 -1855.823608398 -1855.738769531 -1855.673828125 -1855.620971680 -1855.586059570 -1855.570312500 -1855.571899414 -1855.563598633 -1855.569213867 -1855.607788086 -1855.640136719 -1855.664550781 -1855.683349609 -1855.687622070 -1855.675415039 -1855.676269531 -1855.723144531 -1855.783935547 -1855.828613281 -1855.868896484 -1855.929077148 -1855.996704102 -1856.025756836 -1856.006591797 -1855.966308594 -1855.948852539 -1855.962158203 -1855.990478516 -1856.039306641 -1856.133300781 -1856.225463867 -1856.308837891 -1856.409667969 -1856.514892578 -1856.604492188 -1856.689941406 -1856.792968750 -1856.894775391 -1857.008422852 -1857.132568359 -1857.270385742 -1857.408081055 -1857.535522461 -1857.663818359 -1857.776367188 -1857.888061523 -1858.036621094 -1858.213745117 -1858.397949219 -1858.571777344 -1858.723876953
-1862.798095703 -1862.604736328 -1862.429443359 -1862.250366211 -1862.079223633 -1861.919921875 -1861.748168945 -1861.567138672 -1861.397827148 -1861.268188477 -1861.182495117 -1861.117431641 -1861.040405273 -1860.931030273 -1860.786010742 -1860.590698242 -1860.361328125 -1860.133544922 -1859.921386719 -1859.731567383 -1859.557983398 -1859.379028320 -1859.203491211 -1859.063354492 -1858.960815430 -1858.857788086 -1858.760986328 -1858.668090820 -1858.568481445 -1858.459350586 -1858.367797852 -1858.309936523 -1858.239379883 -1858.157226562 -1858.081909180 -1857.999633789 -1857.919555664 -1857.867187500 -1857.808837891 -1857.729370117 -1857.662231445 -1857.623046875 -1857.571777344 -1857.519165039 -1857.465209961 -1857.370483398 -1857.282592773 -1857.237792969 -1857.199584961 -1857.187011719 -1857.209960938 -1857.182373047 -1857.147094727 -1857.076049805 -1856.979370117 -1856.888793945 -1856.795532227 -1856.641967773 -1856.544189453 -1856.435302734 -1856.318847656 -1856.273681641 -1856.169921875 -1856.115478516 -1856.092285156 -1856.070190430 -1856.050048828 -1856.032348633 -1856.006713867 -1855.993041992 -1856.012329102 -1856.053100586 -1856.084472656 -1856.084472656 -1856.020996094 -1855.929443359 -1855.844360352 -1855.769287109 -1855.694458008 -1855.617797852 -1855.559814453 -1855.521850586 -1855.497314453 -1855.486572266 -1855.490600586 -1855.510986328 -1855.536499023 -1855.559082031 -1855.583740234 -1855.603393555 -1855.609619141 -1855.608520508 -1855.602905273 -1855.614257812 -1855.672607422 -1855.739379883 -1855.790405273 -1855.850341797 -1855.900756836 -1855.907470703 -1855.888427734 -1855.855590820 -1855.788208008 -1855.759399414 -1855.782592773 -1855.829833984 -1855.941894531 -1856.072143555 -1856.208862305 -1856.347412109 -1856.465332031 -1856.548461914 -1856.626831055 -1856.726074219 -1856.839111328 -1856.955932617 -1857.066162109 -1857.183105469 -1857.288330078 -1857.389404297 -1857.484497070 -1857.597778320 -1857.722900391 -1857.866577148 -1858.047607422 -1858.250976562 -1858.432373047 -1858.582763672
-1862.761962891 -1862.581420898 -1862.419677734 -1862.269165039 -1862.126220703 -1861.973876953 -1861.793090820 -1861.603027344 -1861.440673828 -1861.305053711 -1861.202026367 -1861.138061523 -1861.072143555 -1860.967773438 -1860.823120117 -1860.634155273 -1860.417602539 -1860.193115234 -1859.977416992 -1859.774536133 -1859.587402344 -1859.393066406 -1859.211914062 -1859.066528320 -1858.951904297 -1858.845458984 -1858.738525391 -1858.622680664 -1858.500366211 -1858.423095703 -1858.351684570 -1858.274291992 -1858.231811523 -1858.165283203 -1858.099975586 -1858.039306641 -1857.941528320 -1857.860351562 -1857.811645508 -1857.768066406 -1857.727050781 -1857.708007812 -1857.677001953 -1857.612792969 -1857.525268555 -1857.414306641 -1857.315673828 -1857.236328125 -1857.193847656 -1857.176513672 -1857.163208008 -1857.135742188 -1857.094604492 -1857.037109375 -1856.962402344 -1856.895751953 -1856.786499023 -1856.655883789 -1856.532836914 -1856.383666992 -1856.276245117 -1856.180297852 -1856.120117188 -1856.059082031 -1855.969848633 -1855.926757812 -1855.893920898 -1855.850585938 -1855.809936523 -1855.803466797 -1855.828247070 -1855.871459961 -1855.928344727 -1855.956665039 -1855.910644531 -1855.824584961 -1855.739135742 -1855.661499023 -1855.604858398 -1855.573730469 -1855.548461914 -1855.515258789 -1855.486328125 -1855.466430664 -1855.454345703 -1855.454467773 -1855.464477539 -1855.481811523 -1855.499633789 -1855.513427734 -1855.531738281 -1855.549072266 -1855.550415039 -1855.553344727 -1855.579101562 -1855.631591797 -1855.696777344 -1855.754638672 -1855.789184570 -1855.785766602 -1855.762451172 -1855.710449219 -1855.675903320 -1855.677734375 -1855.716186523 -1855.795654297 -1855.910522461 -1856.040649414 -1856.177368164 -1856.294311523 -1856.387817383 -1856.470947266 -1856.543701172 -1856.631713867 -1856.749145508 -1856.873657227 -1856.990356445 -1857.088989258 -1857.166748047 -1857.256469727 -1857.347412109 -1857.460449219 -1857.597900391 -1857.748779297 -1857.912719727 -1858.107055664 -1858.276367188 -1858.437255859
-1862.771850586 -1862.594360352 -1862.435424805 -1862.289428711 -1862.141357422 -1861.991943359 -1861.829467773 -1861.659057617 -1861.510986328 -1861.368530273 -1861.243896484 -1861.147583008 -1861.067138672 -1860.965209961 -1860.806518555 -1860.633300781 -1860.440917969 -1860.225219727 -1860.013183594 -1859.811889648 -1859.619873047 -1859.431884766 -1859.252685547 -1859.093139648 -1858.959106445 -1858.832153320 -1858.708374023 -1858.594116211 -1858.481689453 -1858.401123047 -1858.337524414 -1858.269165039 -1858.223144531 -1858.163696289 -1858.074096680 -1857.988403320 -1857.916381836 -1857.845947266 -1857.804443359 -1857.774780273 -1857.742919922 -1857.734863281 -1857.711669922 -1857.644775391 -1857.544433594 -1857.460327148 -1857.368774414 -1857.265747070 -1857.187744141 -1857.159667969 -1857.132446289 -1857.124755859 -1857.085083008 -1856.973632812 -1856.901123047 -1856.836791992 -1856.758422852 -1856.682617188 -1856.569824219 -1856.435302734 -1856.293579102 -1856.157592773 -1856.077270508 -1855.990478516 -1855.918090820 -1855.854736328 -1855.798339844 -1855.755126953 -1855.745239258 -1855.701416016 -1855.700805664 -1855.726318359 -1855.765014648 -1855.790283203 -1855.763671875 -1855.711791992 -1855.656250000 -1855.593505859 -1855.537353516 -1855.501342773 -1855.477050781 -1855.451904297 -1855.426757812 -1855.409179688 -1855.402343750 -1855.399658203 -1855.404052734 -1855.421508789 -1855.440917969 -1855.458496094 -1855.481689453 -1855.502197266 -1855.502197266 -1855.500488281 -1855.522094727 -1855.562500000 -1855.610473633 -1855.659057617 -1855.690917969 -1855.688964844 -1855.676391602 -1855.660522461 -1855.653930664 -1855.664306641 -1855.717773438 -1855.806152344 -1855.909790039 -1856.027099609 -1856.139770508 -1856.227783203 -1856.299316406 -1856.370483398 -1856.432128906 -1856.524169922 -1856.640747070 -1856.767700195 -1856.879760742 -1856.981567383 -1857.055786133 -1857.139648438 -1857.239868164 -1857.373046875 -1857.529052734 -1857.690307617 -1857.848876953 -1858.016845703 -1858.174316406 -1858.306152344
-1862.779418945 -1862.623779297 -1862.469116211 -1862.317138672 -1862.161987305 -1862.014648438 -1861.872314453 -1861.726928711 -1861.583129883 -1861.436523438 -1861.305541992 -1861.187255859 -1861.090087891 -1860.980224609 -1860.834350586 -1860.647827148 -1860.445190430 -1860.231323242 -1860.015136719 -1859.803833008 -1859.613159180 -1859.432861328 -1859.267822266 -1859.118041992 -1858.975585938 -1858.826293945 -1858.669311523 -1858.547607422 -1858.461914062 -1858.374389648 -1858.315429688 -1858.293579102 -1858.225219727 -1858.129394531 -1858.068115234 -1857.972167969 -1857.866088867 -1857.808837891 -1857.774414062 -1857.751342773 -1857.724487305 -1857.710937500 -1857.685180664 -1857.586914062 -1857.518188477 -1857.460327148 -1857.356567383 -1857.263305664 -1857.182373047 -1857.147705078 -1857.125122070 -1857.085327148 -1856.993408203 -1856.854370117 -1856.813598633 -1856.731201172 -1856.612060547 -1856.632446289 -1856.533325195 -1856.400634766 -1856.244750977 -1856.107666016 -1856.021850586 -1855.949707031 -1855.882812500 -1855.804687500 -1855.742309570 -1855.688110352 -1855.637939453 -1855.615112305 -1855.608032227 -1855.616943359 -1855.638671875 -1855.648559570 -1855.630981445 -1855.585083008 -1855.537109375 -1855.489990234 -1855.447875977 -1855.422729492 -1855.410278320 -1855.393798828 -1855.371826172 -1855.354125977 -1855.342773438 -1855.332641602 -1855.332153320 -1855.351562500 -1855.380981445 -1855.410278320 -1855.433959961 -1855.446777344 -1855.442504883 -1855.432250977 -1855.437988281 -1855.464233398 -1855.506713867 -1855.558959961 -1855.597900391 -1855.606933594 -1855.600952148 -1855.599121094 -1855.609985352 -1855.644409180 -1855.712402344 -1855.795410156 -1855.874877930 -1855.963256836 -1856.052246094 -1856.130004883 -1856.189453125 -1856.254882812 -1856.350463867 -1856.431884766 -1856.539062500 -1856.668090820 -1856.771728516 -1856.873046875 -1856.949340820 -1857.048217773 -1857.161499023 -1857.304321289 -1857.468872070 -1857.643798828 -1857.808593750 -1857.961303711 -1858.097290039 -1858.224121094
-1862.818481445 -1862.663818359 -1862.491333008 -1862.327392578 -1862.170532227 -1862.019775391 -1861.884155273 -1861.756591797 -1861.625610352 -1861.473144531 -1861.327270508 -1861.198852539 -1861.086181641 -1860.971923828 -1860.823120117 -1860.635253906 -1860.422729492 -1860.174926758 -1859.924926758 -1859.711181641 -1859.543701172 -1859.393188477 -1859.258544922 -1859.122314453 -1858.979248047 -1858.831420898 -1858.674072266 -1858.565063477 -1858.494140625 -1858.396240234 -1858.301391602 -1858.229248047 -1858.151489258 -1858.056030273 -1857.945678711 -1857.843383789 -1857.755859375 -1857.699584961 -1857.669799805 -1857.666381836 -1857.671630859 -1857.662353516 -1857.650756836 -1857.595825195 -1857.487670898 -1857.412475586 -1857.317504883 -1857.223999023 -1857.158691406 -1857.119140625 -1857.089233398 -1856.997558594 -1856.853149414 -1856.748779297 -1856.691162109 -1856.647583008 -1856.578002930 -1856.567260742 -1856.438476562 -1856.278686523 -1856.116455078 -1856.003540039 -1855.922363281 -1855.878906250 -1855.828247070 -1855.761962891 -1855.694946289 -1855.627685547 -1855.582397461 -1855.568481445 -1855.543579102 -1855.534179688 -1855.524780273 -1855.505615234 -1855.485595703 -1855.453491211 -1855.420288086 -1855.388793945 -1855.353759766 -1855.327392578 -1855.314697266 -1855.305664062 -1855.297729492 -1855.289916992 -1855.281738281 -1855.277954102 -1855.286132812 -1855.312133789 -1855.341430664 -1855.361083984 -1855.381225586 -1855.388671875 -1855.371948242 -1855.359130859 -1855.369262695 -1855.404907227 -1855.462280273 -1855.514892578 -1855.545166016 -1855.550048828 -1855.545288086 -1855.550292969 -1855.570312500 -1855.618652344 -1855.685913086 -1855.757080078 -1855.819458008 -1855.889160156 -1855.969848633 -1856.038085938 -1856.097778320 -1856.166381836 -1856.258789062 -1856.358398438 -1856.446533203 -1856.574584961 -1856.667236328 -1856.764160156 -1856.849975586 -1856.951538086 -1857.062866211 -1857.211059570 -1857.381591797 -1857.565185547 -1857.751953125 -1857.920532227 -1858.058105469 -1858.179321289
-1862.837280273 -1862.695556641 -1862.530395508 -1862.348754883 -1862.166015625 -1862.007446289 -1861.879028320 -1861.762817383 -1861.635742188 -1861.492187500 -1861.342529297 -1861.209838867 -1861.089843750 -1860.952514648 -1860.780151367 -1860.566772461 -1860.311401367 -1860.039794922 -1859.793579102 -1859.588623047 -1859.429321289 -1859.326171875 -1859.231079102 -1859.101928711 -1858.966308594 -1858.821533203 -1858.641845703 -1858.474975586 -1858.349365234 -1858.241943359 -1858.148803711 -1858.071777344 -1857.995483398 -1857.890136719 -1857.763549805 -1857.652709961 -1857.562255859 -1857.522460938 -1857.537841797 -1857.562988281 -1857.589477539 -1857.602539062 -1857.589965820 -1857.541503906 -1857.459960938 -1857.340454102 -1857.260131836 -1857.197387695 -1857.119506836 -1857.062377930 -1857.011352539 -1856.904296875 -1856.804565430 -1856.682495117 -1856.596679688 -1856.534057617 -1856.506469727 -1856.423095703 -1856.293823242 -1856.146972656 -1855.967651367 -1855.857788086 -1855.822143555 -1855.803710938 -1855.768310547 -1855.716796875 -1855.648681641 -1855.585327148 -1855.542114258 -1855.500244141 -1855.487182617 -1855.471435547 -1855.444091797 -1855.402832031 -1855.370849609 -1855.348876953 -1855.317871094 -1855.282958984 -1855.248657227 -1855.219970703 -1855.206176758 -1855.204833984 -1855.206054688 -1855.209228516 -1855.214843750 -1855.220581055 -1855.235351562 -1855.265258789 -1855.291381836 -1855.304077148 -1855.318237305 -1855.324951172 -1855.315917969 -1855.319213867 -1855.351196289 -1855.398803711 -1855.454101562 -1855.501098633 -1855.518066406 -1855.512817383 -1855.504516602 -1855.512573242 -1855.536254883 -1855.578125000 -1855.637207031 -1855.702514648 -1855.754150391 -1855.809570312 -1855.880126953 -1855.943725586 -1856.003784180 -1856.077758789 -1856.170654297 -1856.258544922 -1856.354858398 -1856.476196289 -1856.572998047 -1856.665405273 -1856.752929688 -1856.855957031 -1856.959350586 -1857.097900391 -1857.263061523 -1857.461914062 -1857.666748047 -1857.862670898 -1858.028564453 -1858.161010742
-1862.825927734 -1862.660766602 -1862.505371094 -1862.326538086 -1862.151489258 -1861.996459961 -1861.864501953 -1861.722167969 -1861.592529297 -1861.456054688 -1861.309204102 -1861.185058594 -1861.047363281 -1860.906982422 -1860.733886719 -1860.514038086 -1860.253417969 -1859.988037109 -1859.742553711 -1859.497314453 -1859.324584961 -1859.237426758 -1859.159912109 -1859.042114258 -1858.901733398 -1858.735717773 -1858.536132812 -1858.344726562 -1858.200439453 -1858.098144531 -1858.027832031 -1857.984619141 -1857.921508789 -1857.798706055 -1857.651977539 -1857.515136719 -1857.415039062 -1857.401489258 -1857.443359375 -1857.497436523 -1857.540649414 -1857.567504883 -1857.555786133 -1857.499633789 -1857.419433594 -1857.332763672 -1857.239990234 -1857.147216797 -1857.084106445 -1857.004638672 -1856.944458008 -1856.817871094 -1856.711059570 -1856.629760742 -1856.554077148 -1856.498413086 -1856.421142578 -1856.309204102 -1856.165039062 -1856.010253906 -1855.888427734 -1855.810668945 -1855.787475586 -1855.763183594 -1855.717407227 -1855.655151367 -1855.592895508 -1855.532348633 -1855.481445312 -1855.457641602 -1855.433837891 -1855.387573242 -1855.337280273 -1855.298950195 -1855.272827148 -1855.252929688 -1855.223754883 -1855.184570312 -1855.140502930 -1855.100585938 -1855.076416016 -1855.071533203 -1855.080322266 -1855.103881836 -1855.134155273 -1855.151611328 -1855.162597656 -1855.183959961 -1855.204956055 -1855.220214844 -1855.244750977 -1855.265625000 -1855.272827148 -1855.289306641 -1855.333374023 -1855.385864258 -1855.429931641 -1855.457763672 -1855.454956055 -1855.432617188 -1855.412475586 -1855.419311523 -1855.448486328 -1855.493896484 -1855.552734375 -1855.617065430 -1855.675170898 -1855.729858398 -1855.794921875 -1855.862060547 -1855.920410156 -1855.981689453 -1856.071044922 -1856.179809570 -1856.273437500 -1856.382202148 -1856.484497070 -1856.579711914 -1856.662109375 -1856.760498047 -1856.867431641 -1856.989013672 -1857.141601562 -1857.349975586 -1857.569458008 -1857.793701172 -1857.984130859 -1858.130493164
-1862.821166992 -1862.635986328 -1862.443847656 -1862.252197266 -1862.080566406 -1861.937988281 -1861.812255859 -1861.677246094 -1861.537109375 -1861.404785156 -1861.273193359 -1861.144531250 -1861.018798828 -1860.876708984 -1860.700927734 -1860.500610352 -1860.280517578 -1860.024047852 -1859.754516602 -1859.429809570 -1859.237060547 -1859.173095703 -1859.102661133 -1859.001953125 -1858.867797852 -1858.687133789 -1858.463745117 -1858.254150391 -1858.120483398 -1858.038085938 -1857.982299805 -1857.958618164 -1857.892822266 -1857.729980469 -1857.571411133 -1857.402465820 -1857.237060547 -1857.315063477 -1857.408081055 -1857.491210938 -1857.539550781 -1857.552612305 -1857.536499023 -1857.481079102 -1857.397460938 -1857.299926758 -1857.224243164 -1857.123657227 -1857.015625000 -1856.930908203 -1856.875244141 -1856.780517578 -1856.708984375 -1856.625244141 -1856.539306641 -1856.449584961 -1856.362182617 -1856.231567383 -1856.096069336 -1855.956787109 -1855.863403320 -1855.795166016 -1855.747070312 -1855.708618164 -1855.660278320 -1855.597167969 -1855.541503906 -1855.493530273 -1855.437500000 -1855.391723633 -1855.349975586 -1855.296142578 -1855.250976562 -1855.218017578 -1855.195556641 -1855.169677734 -1855.131103516 -1855.080932617 -1855.038574219 -1855.018554688 -1854.998291016 -1854.973022461 -1854.969848633 -1854.991821289 -1855.023681641 -1855.044433594 -1855.048583984 -1855.058349609 -1855.078247070 -1855.104003906 -1855.139892578 -1855.179931641 -1855.212646484 -1855.241333008 -1855.282836914 -1855.333862305 -1855.364379883 -1855.352539062 -1855.319824219 -1855.289672852 -1855.268310547 -1855.274658203 -1855.315429688 -1855.375976562 -1855.443115234 -1855.510742188 -1855.575195312 -1855.629150391 -1855.690307617 -1855.770385742 -1855.850341797 -1855.906616211 -1855.985351562 -1856.090209961 -1856.182006836 -1856.275512695 -1856.370483398 -1856.474853516 -1856.565429688 -1856.666503906 -1856.774047852 -1856.894287109 -1857.046630859 -1857.253662109 -1857.479248047 -1857.723632812 -1857.935668945 -1858.103637695
-1862.751342773 -1862.554199219 -1862.355957031 -1862.162353516 -1861.995483398 -1861.862060547 -1861.740722656 -1861.622070312 -1861.491088867 -1861.353637695 -1861.225585938 -1861.104736328 -1860.984130859 -1860.845703125 -1860.673828125 -1860.483032227 -1860.301025391 -1860.052368164 -1859.777709961 -1859.439086914 -1859.235961914 -1859.157104492 -1859.087646484 -1859.001708984 -1858.860351562 -1858.686767578 -1858.475585938 -1858.317260742 -1858.224731445 -1858.114501953 -1858.026611328 -1857.969848633 -1857.859619141 -1857.680786133 -1857.541381836 -1857.452880859 -1857.375122070 -1857.376342773 -1857.442504883 -1857.515380859 -1857.551025391 -1857.546508789 -1857.508056641 -1857.459228516 -1857.375488281 -1857.266601562 -1857.168090820 -1857.048828125 -1856.948120117 -1856.880859375 -1856.837646484 -1856.777832031 -1856.698364258 -1856.614624023 -1856.521240234 -1856.424560547 -1856.321777344 -1856.188598633 -1856.053833008 -1855.930297852 -1855.840942383 -1855.755249023 -1855.708007812 -1855.667236328 -1855.618652344 -1855.560058594 -1855.497680664 -1855.437866211 -1855.367675781 -1855.309204102 -1855.262329102 -1855.226074219 -1855.191894531 -1855.157470703 -1855.131225586 -1855.101562500 -1855.054809570 -1854.998535156 -1854.956542969 -1854.933715820 -1854.910034180 -1854.885620117 -1854.880493164 -1854.895263672 -1854.919555664 -1854.939819336 -1854.947509766 -1854.951171875 -1854.959350586 -1854.979614258 -1855.015136719 -1855.062500000 -1855.110595703 -1855.149658203 -1855.191772461 -1855.239868164 -1855.260742188 -1855.230468750 -1855.175170898 -1855.131958008 -1855.105590820 -1855.112792969 -1855.166503906 -1855.239624023 -1855.314941406 -1855.379394531 -1855.437744141 -1855.494384766 -1855.552978516 -1855.637939453 -1855.735961914 -1855.814819336 -1855.884033203 -1855.989990234 -1856.089111328 -1856.171752930 -1856.257324219 -1856.366210938 -1856.480712891 -1856.591430664 -1856.698242188 -1856.819458008 -1856.966552734 -1857.167846680 -1857.398193359 -1857.653076172 -1857.868286133 -1858.051025391
-1862.669677734 -1862.474243164 -1862.276977539 -1862.095581055 -1861.935424805 -1861.802001953 -1861.677612305 -1861.556518555 -1861.433227539 -1861.309448242 -1861.176513672 -1861.049926758 -1860.931884766 -1860.787719727 -1860.617919922 -1860.445800781 -1860.285644531 -1860.055053711 -1859.810180664 -1859.575073242 -1859.409912109 -1859.311157227 -1859.232055664 -1859.128173828 -1858.938842773 -1858.697021484 -1858.488403320 -1858.360229492 -1858.225708008 -1858.092407227 -1858.018188477 -1857.930419922 -1857.805664062 -1857.661621094 -1857.526123047 -1857.427734375 -1857.388793945 -1857.423828125 -1857.498046875 -1857.547607422 -1857.560913086 -1857.527954102 -1857.457275391 -1857.388305664 -1857.297119141 -1857.190307617 -1857.070068359 -1856.958496094 -1856.885375977 -1856.839233398 -1856.804077148 -1856.765502930 -1856.693237305 -1856.611572266 -1856.509521484 -1856.396362305 -1856.278930664 -1856.145141602 -1856.010131836 -1855.878295898 -1855.780761719 -1855.717041016 -1855.672241211 -1855.630737305 -1855.583007812 -1855.524902344 -1855.447753906 -1855.369750977 -1855.305908203 -1855.247192383 -1855.200439453 -1855.177734375 -1855.152709961 -1855.116943359 -1855.081420898 -1855.046020508 -1854.994018555 -1854.932617188 -1854.883300781 -1854.843994141 -1854.813842773 -1854.799438477 -1854.796630859 -1854.802490234 -1854.814819336 -1854.825195312 -1854.827392578 -1854.822631836 -1854.821899414 -1854.839843750 -1854.876953125 -1854.925292969 -1854.984741211 -1855.046875000 -1855.101806641 -1855.142456055 -1855.151977539 -1855.119506836 -1855.058593750 -1855.008666992 -1854.983276367 -1854.995239258 -1855.053100586 -1855.128173828 -1855.204589844 -1855.261108398 -1855.312744141 -1855.366088867 -1855.430908203 -1855.516235352 -1855.617553711 -1855.712158203 -1855.783569336 -1855.886230469 -1855.983520508 -1856.071166992 -1856.157226562 -1856.260986328 -1856.389282227 -1856.511352539 -1856.628051758 -1856.746704102 -1856.899780273 -1857.132568359 -1857.357055664 -1857.601196289 -1857.824462891 -1858.014404297
-1862.521972656 -1862.344116211 -1862.188354492 -1862.046875000 -1861.905151367 -1861.776611328 -1861.635742188 -1861.497070312 -1861.384155273 -1861.276855469 -1861.152587891 -1861.033447266 -1860.906494141 -1860.748901367 -1860.574096680 -1860.409179688 -1860.269165039 -1860.113891602 -1859.937011719 -1859.755615234 -1859.608886719 -1859.508300781 -1859.407836914 -1859.265136719 -1859.054809570 -1858.810668945 -1858.581909180 -1858.399902344 -1858.260742188 -1858.140380859 -1858.018920898 -1857.882568359 -1857.728027344 -1857.567382812 -1857.457275391 -1857.422241211 -1857.436645508 -1857.504028320 -1857.571655273 -1857.588989258 -1857.556396484 -1857.477783203 -1857.383178711 -1857.273925781 -1857.169311523 -1857.055175781 -1856.934326172 -1856.834960938 -1856.775268555 -1856.751586914 -1856.742187500 -1856.724243164 -1856.676513672 -1856.600708008 -1856.497436523 -1856.373657227 -1856.232910156 -1856.094726562 -1855.948486328 -1855.825317383 -1855.730346680 -1855.683837891 -1855.644653320 -1855.610229492 -1855.558837891 -1855.488403320 -1855.395996094 -1855.310302734 -1855.246093750 -1855.189819336 -1855.160522461 -1855.146118164 -1855.120849609 -1855.079345703 -1855.024414062 -1854.969360352 -1854.925659180 -1854.878540039 -1854.834106445 -1854.794189453 -1854.755981445 -1854.728027344 -1854.713500977 -1854.710571289 -1854.718383789 -1854.728881836 -1854.732299805 -1854.726806641 -1854.718872070 -1854.723022461 -1854.746826172 -1854.792480469 -1854.863159180 -1854.942993164 -1855.011596680 -1855.051879883 -1855.053833008 -1855.014648438 -1854.950561523 -1854.899902344 -1854.885620117 -1854.915527344 -1854.975708008 -1855.040893555 -1855.100097656 -1855.156616211 -1855.209838867 -1855.253662109 -1855.302612305 -1855.382080078 -1855.468750000 -1855.573242188 -1855.659667969 -1855.769042969 -1855.875366211 -1855.968261719 -1856.059448242 -1856.162475586 -1856.287597656 -1856.418212891 -1856.549072266 -1856.688110352 -1856.857299805 -1857.065063477 -1857.308593750 -1857.552612305 -1857.772216797 -1857.950927734
-1862.387451172 -1862.257446289 -1862.158691406 -1862.039062500 -1861.886108398 -1861.741821289 -1861.587280273 -1861.435058594 -1861.323364258 -1861.232543945 -1861.114501953 -1861.001220703 -1860.879638672 -1860.722412109 -1860.553466797 -1860.389038086 -1860.246215820 -1860.120361328 -1860.007446289 -1859.891601562 -1859.774169922 -1859.662963867 -1859.542358398 -1859.388549805 -1859.189819336 -1858.946411133 -1858.706054688 -1858.521972656 -1858.360839844 -1858.189331055 -1858.012573242 -1857.837280273 -1857.684814453 -1857.509033203 -1857.383422852 -1857.411743164 -1857.443481445 -1857.514648438 -1857.570190430 -1857.556518555 -1857.482299805 -1857.366333008 -1857.249389648 -1857.097412109 -1856.971435547 -1856.858276367 -1856.759033203 -1856.685913086 -1856.641479492 -1856.635131836 -1856.644165039 -1856.632934570 -1856.621337891 -1856.545166016 -1856.449096680 -1856.322265625 -1856.157104492 -1856.006103516 -1855.861083984 -1855.746826172 -1855.673217773 -1855.643188477 -1855.614379883 -1855.578247070 -1855.520141602 -1855.437011719 -1855.329833984 -1855.231689453 -1855.168823242 -1855.124511719 -1855.113037109 -1855.102539062 -1855.070556641 -1855.009887695 -1854.942749023 -1854.889648438 -1854.844116211 -1854.801879883 -1854.762451172 -1854.721557617 -1854.679077148 -1854.647827148 -1854.632568359 -1854.630371094 -1854.632690430 -1854.633178711 -1854.627685547 -1854.609130859 -1854.588012695 -1854.580200195 -1854.593383789 -1854.638305664 -1854.722412109 -1854.826416016 -1854.909912109 -1854.953369141 -1854.952636719 -1854.912597656 -1854.858154297 -1854.815551758 -1854.806884766 -1854.838256836 -1854.891967773 -1854.947631836 -1855.003173828 -1855.057861328 -1855.106567383 -1855.148559570 -1855.165771484 -1855.220458984 -1855.322998047 -1855.414794922 -1855.516845703 -1855.647583008 -1855.766845703 -1855.859741211 -1855.985717773 -1856.083251953 -1856.204223633 -1856.339233398 -1856.486083984 -1856.640991211 -1856.830200195 -1857.049072266 -1857.285400391 -1857.512939453 -1857.711181641 -1857.866455078
-1862.261352539 -1862.174316406 -1862.086425781 -1861.963256836 -1861.811645508 -1861.666748047 -1861.514770508 -1861.368041992 -1861.264404297 -1861.183959961 -1861.060058594 -1860.920654297 -1860.800659180 -1860.655883789 -1860.489013672 -1860.335571289 -1860.205688477 -1860.105590820 -1860.016357422 -1859.928833008 -1859.835571289 -1859.737304688 -1859.623413086 -1859.467773438 -1859.271850586 -1859.048095703 -1858.828247070 -1858.618408203 -1858.416259766 -1858.231445312 -1858.056640625 -1857.885131836 -1857.614624023 -1857.344970703 -1857.301513672 -1857.337890625 -1857.394897461 -1857.434936523 -1857.441894531 -1857.398437500 -1857.307861328 -1857.179199219 -1857.039184570 -1856.896484375 -1856.778564453 -1856.665771484 -1856.594604492 -1856.531738281 -1856.501342773 -1856.543823242 -1856.537353516 -1856.524536133 -1856.536010742 -1856.463623047 -1856.368286133 -1856.242065430 -1856.081420898 -1855.937255859 -1855.800659180 -1855.687988281 -1855.635864258 -1855.602539062 -1855.561279297 -1855.513427734 -1855.446777344 -1855.339721680 -1855.223754883 -1855.132446289 -1855.083862305 -1855.044677734 -1855.029541016 -1855.016113281 -1854.976318359 -1854.906494141 -1854.840454102 -1854.791503906 -1854.750488281 -1854.703735352 -1854.661376953 -1854.628051758 -1854.597778320 -1854.573608398 -1854.559570312 -1854.544921875 -1854.511230469 -1854.477539062 -1854.464843750 -1854.454589844 -1854.441772461 -1854.441772461 -1854.460571289 -1854.501220703 -1854.576416016 -1854.678955078 -1854.768554688 -1854.813964844 -1854.818603516 -1854.802734375 -1854.775878906 -1854.740722656 -1854.724975586 -1854.747558594 -1854.788085938 -1854.837890625 -1854.891113281 -1854.941406250 -1854.975219727 -1855.012329102 -1855.034545898 -1855.081542969 -1855.187988281 -1855.300170898 -1855.410766602 -1855.540893555 -1855.673217773 -1855.798706055 -1855.912109375 -1856.020019531 -1856.137695312 -1856.267333984 -1856.411621094 -1856.571044922 -1856.760986328 -1856.977172852 -1857.215209961 -1857.433471680 -1857.614135742 -1857.753662109
-1862.145385742 -1862.078613281 -1861.982543945 -1861.870727539 -1861.734008789 -1861.581787109 -1861.439575195 -1861.311645508 -1861.203247070 -1861.106323242 -1860.977661133 -1860.855468750 -1860.732177734 -1860.583374023 -1860.425781250 -1860.282958984 -1860.167968750 -1860.070678711 -1859.984497070 -1859.898681641 -1859.808105469 -1859.713378906 -1859.602294922 -1859.457519531 -1859.275512695 -1859.068481445 -1858.869262695 -1858.666381836 -1858.433349609 -1858.203979492 -1857.992065430 -1857.764282227 -1857.523071289 -1857.388549805 -1857.349121094 -1857.275756836 -1857.276000977 -1857.298461914 -1857.304077148 -1857.241943359 -1857.153930664 -1857.024902344 -1856.885986328 -1856.764282227 -1856.683349609 -1856.592895508 -1856.532958984 -1856.461914062 -1856.443847656 -1856.459960938 -1856.445434570 -1856.413940430 -1856.427001953 -1856.341552734 -1856.258300781 -1856.147705078 -1856.022827148 -1855.892944336 -1855.768066406 -1855.656494141 -1855.592651367 -1855.547607422 -1855.503051758 -1855.445190430 -1855.364257812 -1855.242553711 -1855.129638672 -1855.043457031 -1854.997192383 -1854.971313477 -1854.962646484 -1854.932861328 -1854.883300781 -1854.814819336 -1854.760009766 -1854.709960938 -1854.659667969 -1854.619506836 -1854.583496094 -1854.552734375 -1854.524169922 -1854.495849609 -1854.465454102 -1854.419799805 -1854.354614258 -1854.297363281 -1854.277465820 -1854.283203125 -1854.299072266 -1854.327026367 -1854.360473633 -1854.400756836 -1854.460815430 -1854.543579102 -1854.624145508 -1854.662841797 -1854.664550781 -1854.659179688 -1854.647338867 -1854.618652344 -1854.604248047 -1854.622924805 -1854.658081055 -1854.713500977 -1854.782470703 -1854.838012695 -1854.860717773 -1854.902343750 -1854.941162109 -1855.006591797 -1855.142456055 -1855.229248047 -1855.337402344 -1855.476684570 -1855.630004883 -1855.775512695 -1855.890869141 -1855.979858398 -1856.077148438 -1856.180053711 -1856.305175781 -1856.454101562 -1856.641235352 -1856.855712891 -1857.106811523 -1857.329101562 -1857.509399414 -1857.649780273
-1862.059692383 -1861.983764648 -1861.904907227 -1861.792358398 -1861.654907227 -1861.516479492 -1861.382080078 -1861.239013672 -1861.101806641 -1860.984863281 -1860.876831055 -1860.744262695 -1860.616210938 -1860.499633789 -1860.374267578 -1860.247314453 -1860.117675781 -1859.998901367 -1859.895996094 -1859.782470703 -1859.665893555 -1859.562622070 -1859.458007812 -1859.337524414 -1859.188842773 -1859.003295898 -1858.826416016 -1858.637573242 -1858.398193359 -1858.135375977 -1857.902832031 -1857.694335938 -1857.529907227 -1857.415527344 -1857.271972656 -1857.180175781 -1857.159912109 -1857.171508789 -1857.163452148 -1857.096313477 -1857.011474609 -1856.904174805 -1856.791870117 -1856.696533203 -1856.619018555 -1856.554687500 -1856.458496094 -1856.413085938 -1856.411499023 -1856.354980469 -1856.335693359 -1856.331176758 -1856.321777344 -1856.258422852 -1856.189819336 -1856.089477539 -1855.980957031 -1855.867309570 -1855.741333008 -1855.633422852 -1855.562988281 -1855.506347656 -1855.447509766 -1855.368652344 -1855.263305664 -1855.138183594 -1855.040893555 -1854.983398438 -1854.911865234 -1854.896118164 -1854.882690430 -1854.841064453 -1854.794067383 -1854.731689453 -1854.665405273 -1854.615600586 -1854.573608398 -1854.536987305 -1854.501953125 -1854.466796875 -1854.432128906 -1854.393310547 -1854.342285156 -1854.276977539 -1854.206054688 -1854.155395508 -1854.147094727 -1854.173217773 -1854.217041016 -1854.267456055 -1854.312866211 -1854.348999023 -1854.382080078 -1854.424804688 -1854.473632812 -1854.504394531 -1854.513916016 -1854.511962891 -1854.495117188 -1854.473144531 -1854.454833984 -1854.460205078 -1854.505126953 -1854.586547852 -1854.688598633 -1854.777587891 -1854.830078125 -1854.868164062 -1854.919189453 -1855.006347656 -1855.105957031 -1855.213256836 -1855.324707031 -1855.463134766 -1855.609008789 -1855.743652344 -1855.836181641 -1855.911010742 -1855.990600586 -1856.072753906 -1856.224853516 -1856.396118164 -1856.579467773 -1856.790771484 -1857.027709961 -1857.240478516 -1857.411987305 -1857.539794922
-1861.999877930 -1861.911254883 -1861.816406250 -1861.714111328 -1861.586914062 -1861.453491211 -1861.319946289 -1861.163696289 -1861.000000000 -1860.863037109 -1860.757446289 -1860.640991211 -1860.527465820 -1860.425292969 -1860.311279297 -1860.184082031 -1860.052368164 -1859.918212891 -1859.771606445 -1859.617553711 -1859.480957031 -1859.357910156 -1859.255004883 -1859.158203125 -1859.026489258 -1858.839477539 -1858.660156250 -1858.472656250 -1858.244506836 -1857.987182617 -1857.792480469 -1857.648071289 -1857.470947266 -1857.339965820 -1857.231445312 -1857.134277344 -1857.081542969 -1857.057739258 -1857.030761719 -1856.962158203 -1856.880004883 -1856.788940430 -1856.695068359 -1856.610107422 -1856.548950195 -1856.508422852 -1856.433227539 -1856.381958008 -1856.347290039 -1856.326782227 -1856.301269531 -1856.291870117 -1856.254760742 -1856.202270508 -1856.138549805 -1856.048217773 -1855.939697266 -1855.811157227 -1855.689941406 -1855.587036133 -1855.506103516 -1855.444702148 -1855.380371094 -1855.284790039 -1855.166015625 -1855.042602539 -1854.970947266 -1854.919311523 -1854.846557617 -1854.816528320 -1854.787719727 -1854.742675781 -1854.696777344 -1854.637451172 -1854.577026367 -1854.528320312 -1854.482788086 -1854.445678711 -1854.413696289 -1854.374389648 -1854.326293945 -1854.271972656 -1854.210205078 -1854.141601562 -1854.075927734 -1854.039550781 -1854.053344727 -1854.104980469 -1854.171386719 -1854.238281250 -1854.294433594 -1854.331542969 -1854.346435547 -1854.352050781 -1854.363647461 -1854.371093750 -1854.369506836 -1854.367431641 -1854.355102539 -1854.326782227 -1854.308227539 -1854.333374023 -1854.400390625 -1854.495971680 -1854.597290039 -1854.692382812 -1854.772583008 -1854.824829102 -1854.889038086 -1854.962646484 -1855.044921875 -1855.150512695 -1855.285644531 -1855.422363281 -1855.551757812 -1855.666625977 -1855.742675781 -1855.815673828 -1855.893798828 -1856.021484375 -1856.172485352 -1856.328247070 -1856.476562500 -1856.695434570 -1856.934448242 -1857.141845703 -1857.301391602 -1857.384643555
-1861.932983398 -1861.833374023 -1861.721557617 -1861.619506836 -1861.499023438 -1861.362182617 -1861.219116211 -1861.077270508 -1860.932495117 -1860.791503906 -1860.674194336 -1860.559570312 -1860.446533203 -1860.353027344 -1860.258544922 -1860.144775391 -1860.011230469 -1859.855712891 -1859.668212891 -1859.490966797 -1859.345825195 -1859.210815430 -1859.095581055 -1858.974487305 -1858.818603516 -1858.630615234 -1858.437377930 -1858.253784180 -1858.080932617 -1857.923339844 -1857.788208008 -1857.635620117 -1857.465820312 -1857.320068359 -1857.190185547 -1857.094482422 -1857.012695312 -1856.961914062 -1856.920166016 -1856.845947266 -1856.753051758 -1856.652221680 -1856.553588867 -1856.476074219 -1856.409667969 -1856.389404297 -1856.338989258 -1856.345947266 -1856.329711914 -1856.314208984 -1856.295166016 -1856.305786133 -1856.268066406 -1856.210571289 -1856.116821289 -1856.015380859 -1855.874877930 -1855.729248047 -1855.615356445 -1855.515014648 -1855.431152344 -1855.378295898 -1855.307739258 -1855.200073242 -1855.078613281 -1854.987304688 -1854.942260742 -1854.887451172 -1854.815795898 -1854.742553711 -1854.691772461 -1854.633056641 -1854.563842773 -1854.483520508 -1854.424682617 -1854.394653320 -1854.371093750 -1854.344848633 -1854.317993164 -1854.279907227 -1854.227539062 -1854.163208008 -1854.093139648 -1854.031860352 -1853.983642578 -1853.960083008 -1853.984008789 -1854.046875000 -1854.123535156 -1854.206787109 -1854.283325195 -1854.329467773 -1854.330078125 -1854.300659180 -1854.277099609 -1854.261596680 -1854.247680664 -1854.241333008 -1854.223510742 -1854.200195312 -1854.209838867 -1854.286376953 -1854.368041992 -1854.437011719 -1854.524536133 -1854.611694336 -1854.689086914 -1854.754272461 -1854.829467773 -1854.910522461 -1855.007324219 -1855.124267578 -1855.243896484 -1855.348632812 -1855.443359375 -1855.536865234 -1855.622314453 -1855.719116211 -1855.826293945 -1855.931152344 -1856.098022461 -1856.234985352 -1856.412475586 -1856.614257812 -1856.812866211 -1857.002319336 -1857.142456055 -1857.230834961
-1861.845703125 -1861.751342773 -1861.642578125 -1861.525390625 -1861.395141602 -1861.255615234 -1861.115356445 -1860.981201172 -1860.844482422 -1860.701416016 -1860.581176758 -1860.470825195 -1860.358398438 -1860.273315430 -1860.192138672 -1860.083496094 -1859.941772461 -1859.767822266 -1859.564941406 -1859.369262695 -1859.204101562 -1859.057495117 -1858.913940430 -1858.751220703 -1858.578491211 -1858.389404297 -1858.184692383 -1858.024291992 -1857.919433594 -1857.823852539 -1857.711791992 -1857.573608398 -1857.430664062 -1857.290161133 -1857.151245117 -1857.042358398 -1856.949951172 -1856.882690430 -1856.825073242 -1856.748901367 -1856.655395508 -1856.536254883 -1856.422729492 -1856.345092773 -1856.313110352 -1856.304565430 -1856.283691406 -1856.303222656 -1856.299438477 -1856.309082031 -1856.281494141 -1856.336669922 -1856.327514648 -1856.280639648 -1856.192504883 -1856.050170898 -1855.875488281 -1855.703857422 -1855.574707031 -1855.480834961 -1855.389038086 -1855.345947266 -1855.264648438 -1855.158081055 -1855.052246094 -1854.961914062 -1854.886108398 -1854.842041016 -1854.761596680 -1854.700317383 -1854.628417969 -1854.528442383 -1854.428344727 -1854.336547852 -1854.273803711 -1854.245483398 -1854.243652344 -1854.246337891 -1854.232421875 -1854.197998047 -1854.146118164 -1854.073974609 -1853.995117188 -1853.939941406 -1853.905273438 -1853.901489258 -1853.945556641 -1854.002319336 -1854.076782227 -1854.185302734 -1854.280029297 -1854.337768555 -1854.339599609 -1854.286987305 -1854.224121094 -1854.174804688 -1854.141113281 -1854.129516602 -1854.118408203 -1854.112670898 -1854.139648438 -1854.222045898 -1854.302612305 -1854.363281250 -1854.439331055 -1854.511840820 -1854.572875977 -1854.654541016 -1854.752929688 -1854.851074219 -1854.949829102 -1855.062988281 -1855.165161133 -1855.254760742 -1855.338256836 -1855.432617188 -1855.523071289 -1855.634155273 -1855.766845703 -1855.907958984 -1856.040893555 -1856.198364258 -1856.367431641 -1856.538330078 -1856.695678711 -1856.852661133 -1856.977294922 -1857.078247070
-1861.768920898 -1861.675781250 -1861.557617188 -1861.432250977 -1861.290527344 -1861.140625000 -1861.011962891 -1860.881835938 -1860.743896484 -1860.605957031 -1860.490234375 -1860.375366211 -1860.256469727 -1860.166381836 -1860.084350586 -1859.963745117 -1859.837646484 -1859.688110352 -1859.499389648 -1859.293457031 -1859.101806641 -1858.921264648 -1858.735595703 -1858.538208008 -1858.354003906 -1858.177001953 -1857.991943359 -1857.866210938 -1857.776977539 -1857.686279297 -1857.600341797 -1857.493164062 -1857.370605469 -1857.240356445 -1857.121704102 -1857.017211914 -1856.918457031 -1856.839111328 -1856.773315430 -1856.692993164 -1856.592773438 -1856.479736328 -1856.380737305 -1856.312255859 -1856.298095703 -1856.296142578 -1856.281005859 -1856.297363281 -1856.326538086 -1856.357910156 -1856.372192383 -1856.448242188 -1856.454589844 -1856.424804688 -1856.347412109 -1856.173339844 -1855.981933594 -1855.807739258 -1855.650024414 -1855.553344727 -1855.447143555 -1855.375366211 -1855.274414062 -1855.156250000 -1855.047241211 -1854.960571289 -1854.892822266 -1854.833129883 -1854.772583008 -1854.694580078 -1854.594116211 -1854.485961914 -1854.377197266 -1854.300415039 -1854.243286133 -1854.202392578 -1854.193237305 -1854.195190430 -1854.182983398 -1854.147583008 -1854.092895508 -1854.024780273 -1853.957763672 -1853.913085938 -1853.888916016 -1853.882202148 -1853.908935547 -1853.974121094 -1854.066040039 -1854.166259766 -1854.251953125 -1854.303466797 -1854.297607422 -1854.231323242 -1854.151855469 -1854.090332031 -1854.056396484 -1854.051025391 -1854.061767578 -1854.082641602 -1854.122436523 -1854.185302734 -1854.247192383 -1854.312988281 -1854.376098633 -1854.431518555 -1854.481567383 -1854.568847656 -1854.684326172 -1854.806518555 -1854.915039062 -1855.014648438 -1855.107177734 -1855.185302734 -1855.250366211 -1855.338500977 -1855.432495117 -1855.554077148 -1855.712646484 -1855.883300781 -1856.031860352 -1856.178100586 -1856.313964844 -1856.442504883 -1856.564086914 -1856.699829102 -1856.833496094 -1856.957153320
-1861.683349609 -1861.594970703 -1861.492797852 -1861.368652344 -1861.218505859 -1861.061279297 -1860.919799805 -1860.778076172 -1860.632690430 -1860.496704102 -1860.387207031 -1860.272705078 -1860.149780273 -1860.044677734 -1859.953491211 -1859.855834961 -1859.736450195 -1859.596069336 -1859.430175781 -1859.222534180 -1859.000488281 -1858.777709961 -1858.569091797 -1858.383300781 -1858.228149414 -1858.074218750 -1857.912475586 -1857.782714844 -1857.677124023 -1857.569335938 -1857.481933594 -1857.408935547 -1857.307250977 -1857.191284180 -1857.091918945 -1856.995727539 -1856.897827148 -1856.815917969 -1856.752075195 -1856.682128906 -1856.605712891 -1856.520996094 -1856.461547852 -1856.401489258 -1856.375000000 -1856.367309570 -1856.354980469 -1856.360229492 -1856.370971680 -1856.432006836 -1856.497070312 -1856.566650391 -1856.577270508 -1856.549194336 -1856.490600586 -1856.314575195 -1856.138793945 -1855.964843750 -1855.827636719 -1855.703125000 -1855.592407227 -1855.489013672 -1855.370239258 -1855.241821289 -1855.119262695 -1855.014282227 -1854.931396484 -1854.868041992 -1854.802246094 -1854.726562500 -1854.643676758 -1854.556152344 -1854.446777344 -1854.354980469 -1854.279785156 -1854.213867188 -1854.178588867 -1854.159912109 -1854.133544922 -1854.087402344 -1854.037353516 -1853.993652344 -1853.966918945 -1853.965698242 -1853.976684570 -1853.983276367 -1853.992065430 -1854.024902344 -1854.084472656 -1854.155517578 -1854.215820312 -1854.243408203 -1854.223510742 -1854.160400391 -1854.080444336 -1854.011962891 -1853.977661133 -1853.984252930 -1854.021972656 -1854.080322266 -1854.140502930 -1854.203125000 -1854.257080078 -1854.293457031 -1854.316528320 -1854.352172852 -1854.410156250 -1854.515991211 -1854.655029297 -1854.787597656 -1854.900146484 -1854.990478516 -1855.074707031 -1855.148437500 -1855.203857422 -1855.277221680 -1855.374145508 -1855.507202148 -1855.663208008 -1855.840698242 -1855.986450195 -1856.138671875 -1856.258178711 -1856.348999023 -1856.460693359 -1856.594970703 -1856.714843750 -1856.825073242
-1861.600097656 -1861.536132812 -1861.453491211 -1861.324340820 -1861.175903320 -1861.016479492 -1860.853149414 -1860.698974609 -1860.552490234 -1860.409545898 -1860.290405273 -1860.175415039 -1860.036254883 -1859.915893555 -1859.815673828 -1859.719970703 -1859.614746094 -1859.485473633 -1859.324096680 -1859.121093750 -1858.896728516 -1858.673217773 -1858.471557617 -1858.301391602 -1858.169677734 -1858.028076172 -1857.866088867 -1857.739868164 -1857.646850586 -1857.548583984 -1857.464111328 -1857.398925781 -1857.317504883 -1857.213989258 -1857.098388672 -1856.990112305 -1856.895507812 -1856.817504883 -1856.770751953 -1856.736694336 -1856.700439453 -1856.640991211 -1856.594360352 -1856.576171875 -1856.602905273 -1856.578735352 -1856.557739258 -1856.546264648 -1856.503540039 -1856.565429688 -1856.621459961 -1856.687866211 -1856.700317383 -1856.659790039 -1856.585815430 -1856.424926758 -1856.260498047 -1856.110839844 -1855.993774414 -1855.883544922 -1855.776367188 -1855.661865234 -1855.531738281 -1855.394775391 -1855.254150391 -1855.146118164 -1855.085205078 -1854.984252930 -1854.906250000 -1854.845703125 -1854.764526367 -1854.670410156 -1854.553588867 -1854.442504883 -1854.351440430 -1854.268920898 -1854.206176758 -1854.148315430 -1854.086669922 -1854.023925781 -1853.983276367 -1853.977783203 -1854.007324219 -1854.055908203 -1854.093994141 -1854.108398438 -1854.112304688 -1854.128784180 -1854.161010742 -1854.191894531 -1854.206054688 -1854.196411133 -1854.157470703 -1854.090087891 -1854.011596680 -1853.949340820 -1853.919921875 -1853.936645508 -1854.001708984 -1854.088134766 -1854.166503906 -1854.233520508 -1854.269653320 -1854.278320312 -1854.282104492 -1854.308837891 -1854.380615234 -1854.497558594 -1854.649169922 -1854.790405273 -1854.906860352 -1855.002441406 -1855.081420898 -1855.148681641 -1855.203491211 -1855.271606445 -1855.361572266 -1855.487426758 -1855.629394531 -1855.786132812 -1855.946044922 -1856.088623047 -1856.199340820 -1856.278808594 -1856.385620117 -1856.512695312 -1856.622192383 -1856.719116211
-1861.542358398 -1861.506469727 -1861.430053711 -1861.279907227 -1861.122314453 -1860.967895508 -1860.803833008 -1860.643188477 -1860.485839844 -1860.324462891 -1860.187500000 -1860.066162109 -1859.934082031 -1859.816040039 -1859.703125000 -1859.598754883 -1859.490600586 -1859.366943359 -1859.207763672 -1859.026611328 -1858.824340820 -1858.624267578 -1858.446289062 -1858.275878906 -1858.131835938 -1857.992553711 -1857.860717773 -1857.748657227 -1857.661743164 -1857.601684570 -1857.543823242 -1857.476318359 -1857.394897461 -1857.288574219 -1857.157836914 -1857.036743164 -1856.943603516 -1856.872558594 -1856.851196289 -1856.863281250 -1856.873657227 -1856.844604492 -1856.815063477 -1856.791748047 -1856.771484375 -1856.765136719 -1856.721557617 -1856.710937500 -1856.718627930 -1856.736206055 -1856.745727539 -1856.771972656 -1856.766113281 -1856.723632812 -1856.634765625 -1856.502319336 -1856.366821289 -1856.261230469 -1856.173095703 -1856.082153320 -1855.982299805 -1855.863281250 -1855.735107422 -1855.595336914 -1855.442138672 -1855.311279297 -1855.245849609 -1855.161010742 -1855.075073242 -1855.027465820 -1854.949829102 -1854.840576172 -1854.715454102 -1854.587768555 -1854.468994141 -1854.369506836 -1854.274536133 -1854.164550781 -1854.067382812 -1854.001953125 -1853.986083984 -1854.022827148 -1854.091674805 -1854.164672852 -1854.227416992 -1854.269775391 -1854.288940430 -1854.302246094 -1854.315917969 -1854.311279297 -1854.271850586 -1854.210693359 -1854.140625000 -1854.060180664 -1853.983398438 -1853.939086914 -1853.931518555 -1853.968383789 -1854.046264648 -1854.134155273 -1854.219360352 -1854.289062500 -1854.317626953 -1854.311157227 -1854.299682617 -1854.325317383 -1854.396240234 -1854.482788086 -1854.619750977 -1854.772460938 -1854.897094727 -1855.009643555 -1855.108764648 -1855.178710938 -1855.226318359 -1855.285156250 -1855.353637695 -1855.460571289 -1855.594238281 -1855.750976562 -1855.897338867 -1856.037231445 -1856.158325195 -1856.242675781 -1856.337158203 -1856.447265625 -1856.555664062 -1856.653564453
-1861.493652344 -1861.453247070 -1861.332519531 -1861.171630859 -1861.024291992 -1860.863281250 -1860.713378906 -1860.562744141 -1860.394531250 -1860.219848633 -1860.062011719 -1859.943359375 -1859.837646484 -1859.729614258 -1859.618164062 -1859.504394531 -1859.384399414 -1859.258300781 -1859.121948242 -1858.973754883 -1858.804321289 -1858.626464844 -1858.465332031 -1858.294311523 -1858.129394531 -1858.007568359 -1857.921508789 -1857.835815430 -1857.765747070 -1857.725463867 -1857.682495117 -1857.617675781 -1857.526123047 -1857.411254883 -1857.279052734 -1857.158691406 -1857.080200195 -1857.030761719 -1857.016479492 -1857.033813477 -1857.051269531 -1857.049194336 -1857.037597656 -1857.024658203 -1856.998046875 -1856.974243164 -1856.973144531 -1856.948242188 -1856.883178711 -1856.828125000 -1856.768066406 -1856.748046875 -1856.737426758 -1856.715942383 -1856.653808594 -1856.564208984 -1856.473510742 -1856.408203125 -1856.346191406 -1856.275878906 -1856.174194336 -1856.061645508 -1855.945922852 -1855.812866211 -1855.672241211 -1855.532836914 -1855.444091797 -1855.345336914 -1855.283691406 -1855.219970703 -1855.152954102 -1855.053833008 -1854.920654297 -1854.776855469 -1854.637817383 -1854.507690430 -1854.372924805 -1854.228515625 -1854.117431641 -1854.062988281 -1854.066162109 -1854.106445312 -1854.169799805 -1854.251342773 -1854.338134766 -1854.410888672 -1854.453613281 -1854.467895508 -1854.464111328 -1854.434082031 -1854.361572266 -1854.266235352 -1854.170776367 -1854.083129883 -1854.021240234 -1854.006103516 -1854.037353516 -1854.098632812 -1854.174072266 -1854.247436523 -1854.314575195 -1854.374633789 -1854.409301758 -1854.404418945 -1854.367065430 -1854.363525391 -1854.405883789 -1854.448608398 -1854.563110352 -1854.711181641 -1854.846923828 -1854.979370117 -1855.086914062 -1855.167602539 -1855.207153320 -1855.270385742 -1855.342041016 -1855.443725586 -1855.567749023 -1855.707763672 -1855.850952148 -1855.984008789 -1856.105346680 -1856.200195312 -1856.297607422 -1856.400756836 -1856.504760742 -1856.604736328
-1861.426147461 -1861.372192383 -1861.250610352 -1861.082763672 -1860.925781250 -1860.766357422 -1860.607543945 -1860.446166992 -1860.274658203 -1860.094360352 -1859.927246094 -1859.802612305 -1859.703247070 -1859.607299805 -1859.520385742 -1859.423095703 -1859.321411133 -1859.217041016 -1859.103637695 -1858.971069336 -1858.822143555 -1858.663330078 -1858.518066406 -1858.359130859 -1858.208618164 -1858.100708008 -1858.019409180 -1857.950561523 -1857.900390625 -1857.866333008 -1857.832397461 -1857.778076172 -1857.688720703 -1857.575561523 -1857.457641602 -1857.355712891 -1857.286621094 -1857.239379883 -1857.216918945 -1857.220214844 -1857.222412109 -1857.218750000 -1857.217895508 -1857.214355469 -1857.193481445 -1857.179321289 -1857.168823242 -1857.115234375 -1857.001098633 -1856.905151367 -1856.829589844 -1856.794677734 -1856.776855469 -1856.765380859 -1856.732666016 -1856.684448242 -1856.628906250 -1856.569702148 -1856.526123047 -1856.450561523 -1856.349365234 -1856.241821289 -1856.141845703 -1856.023437500 -1855.900024414 -1855.761840820 -1855.651000977 -1855.552001953 -1855.477539062 -1855.428588867 -1855.379760742 -1855.292114258 -1855.158691406 -1854.995727539 -1854.832763672 -1854.673095703 -1854.509399414 -1854.358642578 -1854.244018555 -1854.168334961 -1854.154052734 -1854.181762695 -1854.235961914 -1854.320922852 -1854.414184570 -1854.495239258 -1854.549316406 -1854.570434570 -1854.562133789 -1854.518432617 -1854.442871094 -1854.359375000 -1854.285278320 -1854.229125977 -1854.198120117 -1854.196166992 -1854.234375000 -1854.289306641 -1854.340454102 -1854.389648438 -1854.441162109 -1854.491821289 -1854.519409180 -1854.500854492 -1854.456542969 -1854.426391602 -1854.388671875 -1854.382446289 -1854.466552734 -1854.607177734 -1854.784545898 -1854.951049805 -1855.040039062 -1855.134277344 -1855.178344727 -1855.234008789 -1855.319580078 -1855.430786133 -1855.548217773 -1855.679443359 -1855.811035156 -1855.931396484 -1856.044433594 -1856.129638672 -1856.225463867 -1856.332397461 -1856.437011719 -1856.547729492
-1861.323364258 -1861.239013672 -1861.130615234 -1860.991210938 -1860.835449219 -1860.678222656 -1860.512207031 -1860.336914062 -1860.158325195 -1859.976074219 -1859.810424805 -1859.684448242 -1859.597290039 -1859.518310547 -1859.441162109 -1859.354980469 -1859.269287109 -1859.176513672 -1859.080688477 -1858.973510742 -1858.854614258 -1858.725219727 -1858.604248047 -1858.469604492 -1858.344482422 -1858.245483398 -1858.161376953 -1858.095825195 -1858.047241211 -1858.009521484 -1857.973266602 -1857.922485352 -1857.843994141 -1857.746704102 -1857.652465820 -1857.572021484 -1857.506958008 -1857.450317383 -1857.409912109 -1857.385864258 -1857.365966797 -1857.350830078 -1857.341552734 -1857.329956055 -1857.315917969 -1857.309204102 -1857.308715820 -1857.258911133 -1857.165527344 -1857.066284180 -1857.003173828 -1856.965332031 -1856.922119141 -1856.893554688 -1856.867553711 -1856.827880859 -1856.783447266 -1856.723510742 -1856.683227539 -1856.593872070 -1856.516967773 -1856.405029297 -1856.309082031 -1856.200195312 -1856.084350586 -1855.955200195 -1855.838745117 -1855.740478516 -1855.674804688 -1855.631225586 -1855.587280273 -1855.509033203 -1855.389282227 -1855.238037109 -1855.068237305 -1854.885498047 -1854.695068359 -1854.554931641 -1854.462036133 -1854.341552734 -1854.268554688 -1854.263671875 -1854.287719727 -1854.349487305 -1854.432983398 -1854.510986328 -1854.567993164 -1854.604003906 -1854.621704102 -1854.611328125 -1854.572387695 -1854.521362305 -1854.479248047 -1854.450683594 -1854.427856445 -1854.412719727 -1854.421875000 -1854.451538086 -1854.490478516 -1854.535644531 -1854.580444336 -1854.624633789 -1854.639892578 -1854.601074219 -1854.530395508 -1854.446044922 -1854.362792969 -1854.319824219 -1854.373901367 -1854.506713867 -1854.696655273 -1854.881958008 -1855.012329102 -1855.105834961 -1855.166992188 -1855.223144531 -1855.318603516 -1855.432861328 -1855.549072266 -1855.672119141 -1855.782226562 -1855.879760742 -1855.966308594 -1856.037719727 -1856.128540039 -1856.236694336 -1856.351196289 -1856.479858398
-1861.170654297 -1861.073120117 -1860.954711914 -1860.812866211 -1860.664428711 -1860.520385742 -1860.361450195 -1860.188842773 -1860.020141602 -1859.846191406 -1859.687866211 -1859.561279297 -1859.473754883 -1859.403686523 -1859.344238281 -1859.284423828 -1859.219238281 -1859.144897461 -1859.066528320 -1858.976684570 -1858.881835938 -1858.781616211 -1858.677978516 -1858.561767578 -1858.449707031 -1858.354736328 -1858.276367188 -1858.214477539 -1858.165283203 -1858.123046875 -1858.078125000 -1858.024902344 -1857.963256836 -1857.895629883 -1857.830200195 -1857.767578125 -1857.702758789 -1857.639038086 -1857.580566406 -1857.528198242 -1857.496215820 -1857.467529297 -1857.445922852 -1857.423339844 -1857.413085938 -1857.408081055 -1857.417968750 -1857.400634766 -1857.336914062 -1857.256225586 -1857.180053711 -1857.132080078 -1857.072143555 -1857.026977539 -1857.003051758 -1856.968750000 -1856.917724609 -1856.859252930 -1856.826782227 -1856.771606445 -1856.672119141 -1856.553344727 -1856.444213867 -1856.331909180 -1856.222534180 -1856.112792969 -1856.001708984 -1855.898559570 -1855.828979492 -1855.781372070 -1855.742431641 -1855.682983398 -1855.588134766 -1855.467773438 -1855.321899414 -1855.150390625 -1854.968872070 -1854.828857422 -1854.706665039 -1854.572998047 -1854.467773438 -1854.403442383 -1854.370483398 -1854.382080078 -1854.432739258 -1854.497192383 -1854.557861328 -1854.614624023 -1854.666992188 -1854.704589844 -1854.725341797 -1854.725463867 -1854.703857422 -1854.667114258 -1854.624511719 -1854.584594727 -1854.556152344 -1854.553466797 -1854.593017578 -1854.654785156 -1854.710327148 -1854.746459961 -1854.738403320 -1854.675048828 -1854.547241211 -1854.371704102 -1854.284545898 -1854.252807617 -1854.271240234 -1854.398315430 -1854.598999023 -1854.778808594 -1854.922119141 -1855.030151367 -1855.109130859 -1855.207031250 -1855.319335938 -1855.427856445 -1855.530029297 -1855.638916016 -1855.738037109 -1855.816894531 -1855.875488281 -1855.950683594 -1856.050781250 -1856.170410156 -1856.299072266 -1856.433593750
-1860.994750977 -1860.889648438 -1860.781372070 -1860.646240234 -1860.500366211 -1860.357299805 -1860.198120117 -1860.030029297 -1859.874023438 -1859.724243164 -1859.585205078 -1859.469238281 -1859.374145508 -1859.303710938 -1859.249877930 -1859.205444336 -1859.159912109 -1859.102783203 -1859.040283203 -1858.968750000 -1858.895141602 -1858.814208984 -1858.722778320 -1858.620117188 -1858.516357422 -1858.425781250 -1858.353393555 -1858.295288086 -1858.246948242 -1858.197875977 -1858.143066406 -1858.091552734 -1858.047363281 -1858.008178711 -1857.970092773 -1857.921386719 -1857.855102539 -1857.785156250 -1857.719482422 -1857.656372070 -1857.612426758 -1857.583007812 -1857.564819336 -1857.537963867 -1857.537475586 -1857.544311523 -1857.555175781 -1857.548706055 -1857.502807617 -1857.424438477 -1857.348876953 -1857.313354492 -1857.249511719 -1857.184570312 -1857.129760742 -1857.081298828 -1857.033935547 -1856.992553711 -1856.967041016 -1856.927734375 -1856.824462891 -1856.692504883 -1856.556518555 -1856.441162109 -1856.337280273 -1856.233886719 -1856.123657227 -1856.015502930 -1855.934570312 -1855.884155273 -1855.857666016 -1855.829956055 -1855.765625000 -1855.677368164 -1855.563842773 -1855.424438477 -1855.265136719 -1855.119995117 -1854.983032227 -1854.848022461 -1854.713134766 -1854.588378906 -1854.486328125 -1854.433227539 -1854.442260742 -1854.486328125 -1854.541992188 -1854.605346680 -1854.681152344 -1854.762695312 -1854.830810547 -1854.871948242 -1854.869873047 -1854.821899414 -1854.750732422 -1854.678710938 -1854.620117188 -1854.604492188 -1854.644165039 -1854.715820312 -1854.780395508 -1854.812133789 -1854.794189453 -1854.720336914 -1854.583251953 -1854.370239258 -1854.219116211 -1854.217407227 -1854.180786133 -1854.290527344 -1854.494506836 -1854.666259766 -1854.828979492 -1854.954589844 -1855.062500000 -1855.171752930 -1855.279785156 -1855.385009766 -1855.468627930 -1855.558227539 -1855.662841797 -1855.749023438 -1855.809082031 -1855.902954102 -1856.018066406 -1856.144409180 -1856.268066406 -1856.392456055
-1860.824829102 -1860.719238281 -1860.612426758 -1860.492309570 -1860.358520508 -1860.215209961 -1860.062744141 -1859.914916992 -1859.762695312 -1859.625854492 -1859.497802734 -1859.387939453 -1859.284423828 -1859.218139648 -1859.161376953 -1859.117187500 -1859.083374023 -1859.043823242 -1858.995483398 -1858.945556641 -1858.895751953 -1858.824096680 -1858.730957031 -1858.634277344 -1858.540405273 -1858.452270508 -1858.385009766 -1858.337646484 -1858.291381836 -1858.235351562 -1858.175170898 -1858.121459961 -1858.083984375 -1858.066650391 -1858.058227539 -1858.031982422 -1857.966796875 -1857.898803711 -1857.839843750 -1857.780761719 -1857.728393555 -1857.702148438 -1857.689331055 -1857.671752930 -1857.691284180 -1857.718872070 -1857.731201172 -1857.710327148 -1857.662841797 -1857.592041016 -1857.524658203 -1857.513549805 -1857.463989258 -1857.411376953 -1857.332763672 -1857.259399414 -1857.199584961 -1857.169311523 -1857.131835938 -1857.074951172 -1856.960693359 -1856.821655273 -1856.670898438 -1856.567138672 -1856.475219727 -1856.378173828 -1856.268432617 -1856.151611328 -1856.059814453 -1856.005249023 -1855.981445312 -1855.967895508 -1855.922851562 -1855.857543945 -1855.774536133 -1855.672485352 -1855.542602539 -1855.415527344 -1855.279541016 -1855.121582031 -1854.949829102 -1854.783935547 -1854.632568359 -1854.521850586 -1854.485839844 -1854.511474609 -1854.563842773 -1854.626831055 -1854.705200195 -1854.800415039 -1854.895507812 -1854.961547852 -1854.968994141 -1854.916625977 -1854.831787109 -1854.735595703 -1854.661621094 -1854.643310547 -1854.683471680 -1854.756347656 -1854.823608398 -1854.852172852 -1854.838500977 -1854.786376953 -1854.682739258 -1854.482177734 -1854.208618164 -1854.215820312 -1854.136474609 -1854.242309570 -1854.450073242 -1854.620605469 -1854.786376953 -1854.915161133 -1855.039672852 -1855.126708984 -1855.214477539 -1855.308959961 -1855.405395508 -1855.489379883 -1855.597290039 -1855.693725586 -1855.759643555 -1855.826538086 -1855.943481445 -1856.073974609 -1856.208129883 -1856.347534180
-1860.698852539 -1860.587280273 -1860.467895508 -1860.352905273 -1860.221313477 -1860.070190430 -1859.922485352 -1859.794921875 -1859.681884766 -1859.570556641 -1859.439575195 -1859.304809570 -1859.202026367 -1859.132324219 -1859.081787109 -1859.045776367 -1859.023437500 -1859.005371094 -1858.983398438 -1858.954589844 -1858.917724609 -1858.848999023 -1858.742797852 -1858.642456055 -1858.557006836 -1858.463745117 -1858.393432617 -1858.356689453 -1858.313964844 -1858.257446289 -1858.197021484 -1858.140380859 -1858.106811523 -1858.098876953 -1858.106811523 -1858.103027344 -1858.056518555 -1858.001464844 -1857.955078125 -1857.910400391 -1857.860351562 -1857.831909180 -1857.826782227 -1857.828979492 -1857.861450195 -1857.891601562 -1857.897583008 -1857.867431641 -1857.821899414 -1857.765136719 -1857.737670898 -1857.755249023 -1857.749511719 -1857.725585938 -1857.646362305 -1857.556640625 -1857.494384766 -1857.450317383 -1857.366943359 -1857.268310547 -1857.142456055 -1856.981323242 -1856.836181641 -1856.750976562 -1856.664550781 -1856.565429688 -1856.454223633 -1856.339477539 -1856.245239258 -1856.183593750 -1856.149169922 -1856.134277344 -1856.102539062 -1856.048583984 -1855.980957031 -1855.897949219 -1855.785156250 -1855.657714844 -1855.521850586 -1855.363525391 -1855.179931641 -1854.995483398 -1854.824462891 -1854.680908203 -1854.608276367 -1854.610839844 -1854.648925781 -1854.715698242 -1854.791381836 -1854.867065430 -1854.969848633 -1855.046142578 -1855.057617188 -1855.009765625 -1854.927978516 -1854.837646484 -1854.778564453 -1854.775756836 -1854.824096680 -1854.899169922 -1854.956542969 -1854.971557617 -1854.950561523 -1854.915405273 -1854.833251953 -1854.682250977 -1854.516357422 -1854.353393555 -1854.239013672 -1854.327392578 -1854.480834961 -1854.629272461 -1854.757080078 -1854.881225586 -1855.007568359 -1855.099365234 -1855.173583984 -1855.259277344 -1855.354614258 -1855.440795898 -1855.542236328 -1855.625610352 -1855.685058594 -1855.742675781 -1855.838745117 -1855.955444336 -1856.085815430 -1856.235595703
-1860.611694336 -1860.496337891 -1860.365722656 -1860.239746094 -1860.102783203 -1859.947753906 -1859.817993164 -1859.722900391 -1859.614990234 -1859.502441406 -1859.374145508 -1859.241088867 -1859.139038086 -1859.079589844 -1859.053344727 -1859.027954102 -1859.016357422 -1859.014892578 -1859.009643555 -1858.994384766 -1858.965454102 -1858.895874023 -1858.782714844 -1858.669677734 -1858.572753906 -1858.493041992 -1858.428222656 -1858.379028320 -1858.339721680 -1858.290527344 -1858.228881836 -1858.172607422 -1858.138061523 -1858.129272461 -1858.142211914 -1858.157958984 -1858.145996094 -1858.108398438 -1858.073242188 -1858.043334961 -1858.008789062 -1857.983398438 -1857.993286133 -1858.007324219 -1858.038330078 -1858.056640625 -1858.053833008 -1858.023071289 -1857.992675781 -1857.957885742 -1857.973876953 -1858.004028320 -1858.032104492 -1858.019042969 -1857.968383789 -1857.887451172 -1857.847412109 -1857.802734375 -1857.689697266 -1857.575317383 -1857.435791016 -1857.258178711 -1857.122680664 -1857.014526367 -1856.900634766 -1856.787963867 -1856.677734375 -1856.574584961 -1856.478515625 -1856.399414062 -1856.348754883 -1856.321044922 -1856.291625977 -1856.248291016 -1856.197998047 -1856.132446289 -1856.036987305 -1855.922241211 -1855.789550781 -1855.624633789 -1855.436889648 -1855.260864258 -1855.111083984 -1854.959228516 -1854.817626953 -1854.760742188 -1854.784301758 -1854.835693359 -1854.902709961 -1854.976196289 -1855.062133789 -1855.134643555 -1855.156005859 -1855.127319336 -1855.071166992 -1855.025024414 -1855.012939453 -1855.040405273 -1855.099243164 -1855.161010742 -1855.179443359 -1855.158813477 -1855.114135742 -1855.059814453 -1854.966186523 -1854.852539062 -1854.702148438 -1854.557250977 -1854.471313477 -1854.468383789 -1854.533813477 -1854.636108398 -1854.750000000 -1854.871093750 -1854.983764648 -1855.102661133 -1855.176147461 -1855.253295898 -1855.340698242 -1855.402954102 -1855.480957031 -1855.535034180 -1855.575439453 -1855.626708984 -1855.713867188 -1855.836181641 -1855.970825195 -1856.119140625
-1860.528320312 -1860.400390625 -1860.267456055 -1860.143188477 -1860.029052734 -1859.916625977 -1859.793823242 -1859.688354492 -1859.582397461 -1859.467651367 -1859.338867188 -1859.207763672 -1859.108520508 -1859.061889648 -1859.042236328 -1859.028930664 -1859.031616211 -1859.042602539 -1859.041259766 -1859.034301758 -1858.995971680 -1858.912963867 -1858.803466797 -1858.690795898 -1858.580932617 -1858.492553711 -1858.436035156 -1858.396850586 -1858.361083984 -1858.313476562 -1858.253173828 -1858.202636719 -1858.173583984 -1858.170898438 -1858.194091797 -1858.231567383 -1858.258422852 -1858.243164062 -1858.228759766 -1858.216552734 -1858.202148438 -1858.185913086 -1858.206176758 -1858.217407227 -1858.233398438 -1858.239868164 -1858.234619141 -1858.212280273 -1858.211914062 -1858.203369141 -1858.245483398 -1858.284179688 -1858.323852539 -1858.313842773 -1858.278442383 -1858.202392578 -1858.146850586 -1858.097290039 -1858.002563477 -1857.906616211 -1857.796875000 -1857.660522461 -1857.498779297 -1857.352783203 -1857.169799805 -1857.040771484 -1856.921752930 -1856.814575195 -1856.713623047 -1856.617187500 -1856.546020508 -1856.503662109 -1856.471557617 -1856.437011719 -1856.406738281 -1856.361572266 -1856.294799805 -1856.210083008 -1856.093383789 -1855.937500000 -1855.761230469 -1855.593505859 -1855.447021484 -1855.283813477 -1855.113525391 -1855.001342773 -1854.951660156 -1854.953491211 -1855.010375977 -1855.091796875 -1855.168334961 -1855.230712891 -1855.264648438 -1855.266723633 -1855.258666992 -1855.262695312 -1855.285156250 -1855.325805664 -1855.374267578 -1855.395874023 -1855.369262695 -1855.316650391 -1855.251464844 -1855.169921875 -1855.047729492 -1854.945068359 -1854.833496094 -1854.711547852 -1854.610229492 -1854.576293945 -1854.583374023 -1854.662353516 -1854.779052734 -1854.907226562 -1855.014160156 -1855.115600586 -1855.190551758 -1855.262817383 -1855.334228516 -1855.370727539 -1855.400878906 -1855.418090820 -1855.447387695 -1855.504272461 -1855.598266602 -1855.723632812 -1855.876220703 -1856.039428711
-1860.448486328 -1860.311401367 -1860.179321289 -1860.060668945 -1859.959960938 -1859.866455078 -1859.755981445 -1859.652099609 -1859.548828125 -1859.439208984 -1859.319580078 -1859.184814453 -1859.078002930 -1859.035888672 -1859.030395508 -1859.038818359 -1859.055175781 -1859.069946289 -1859.076782227 -1859.064941406 -1859.005126953 -1858.919189453 -1858.822387695 -1858.721313477 -1858.614135742 -1858.513183594 -1858.446044922 -1858.401611328 -1858.363159180 -1858.321899414 -1858.277343750 -1858.249511719 -1858.236816406 -1858.247802734 -1858.292480469 -1858.354736328 -1858.410156250 -1858.416259766 -1858.427368164 -1858.420288086 -1858.407104492 -1858.399658203 -1858.416748047 -1858.427246094 -1858.435668945 -1858.434204102 -1858.420166016 -1858.420043945 -1858.460205078 -1858.482910156 -1858.555175781 -1858.609008789 -1858.632690430 -1858.607421875 -1858.563110352 -1858.483398438 -1858.413208008 -1858.357177734 -1858.266113281 -1858.172973633 -1858.044433594 -1857.913330078 -1857.728759766 -1857.588012695 -1857.408691406 -1857.276245117 -1857.152221680 -1857.046630859 -1856.949218750 -1856.853759766 -1856.779785156 -1856.729980469 -1856.697143555 -1856.675659180 -1856.670898438 -1856.655639648 -1856.619995117 -1856.554321289 -1856.438964844 -1856.289062500 -1856.131835938 -1855.977294922 -1855.813476562 -1855.619873047 -1855.450195312 -1855.337158203 -1855.230834961 -1855.160888672 -1855.178588867 -1855.236328125 -1855.292724609 -1855.347534180 -1855.391967773 -1855.423095703 -1855.458618164 -1855.500610352 -1855.537109375 -1855.565185547 -1855.578735352 -1855.551391602 -1855.493652344 -1855.423095703 -1855.346435547 -1855.245971680 -1855.125488281 -1855.023681641 -1854.901611328 -1854.782958984 -1854.676513672 -1854.618896484 -1854.609130859 -1854.694213867 -1854.812377930 -1854.940551758 -1855.052490234 -1855.127075195 -1855.202270508 -1855.272094727 -1855.327880859 -1855.332519531 -1855.346313477 -1855.343261719 -1855.363403320 -1855.445068359 -1855.543823242 -1855.663574219 -1855.826049805 -1856.010742188
-1860.357177734 -1860.212524414 -1860.085327148 -1859.984008789 -1859.884155273 -1859.786743164 -1859.702758789 -1859.616455078 -1859.504272461 -1859.395385742 -1859.275756836 -1859.147338867 -1859.049560547 -1859.008544922 -1859.005004883 -1859.032104492 -1859.060058594 -1859.077880859 -1859.078247070 -1859.049072266 -1858.997192383 -1858.928833008 -1858.838256836 -1858.728637695 -1858.620727539 -1858.515869141 -1858.444213867 -1858.399291992 -1858.366821289 -1858.338867188 -1858.317138672 -1858.324584961 -1858.336547852 -1858.361572266 -1858.422607422 -1858.501708984 -1858.577514648 -1858.609863281 -1858.631103516 -1858.620727539 -1858.601440430 -1858.590942383 -1858.591552734 -1858.596191406 -1858.599365234 -1858.597656250 -1858.590209961 -1858.613281250 -1858.677612305 -1858.742187500 -1858.835815430 -1858.914550781 -1858.947631836 -1858.921142578 -1858.854858398 -1858.748046875 -1858.659057617 -1858.572387695 -1858.460205078 -1858.343139648 -1858.205566406 -1858.055908203 -1857.901367188 -1857.767700195 -1857.632446289 -1857.504882812 -1857.382690430 -1857.281738281 -1857.197021484 -1857.128540039 -1857.072265625 -1857.030273438 -1857.013427734 -1857.014404297 -1857.028930664 -1857.034179688 -1857.020751953 -1856.967773438 -1856.848876953 -1856.682495117 -1856.509643555 -1856.350585938 -1856.176513672 -1855.969970703 -1855.789184570 -1855.634399414 -1855.480346680 -1855.382690430 -1855.367919922 -1855.402465820 -1855.448608398 -1855.503295898 -1855.559692383 -1855.612182617 -1855.666259766 -1855.715332031 -1855.746704102 -1855.754028320 -1855.731445312 -1855.681762695 -1855.614990234 -1855.526611328 -1855.427490234 -1855.305297852 -1855.186889648 -1855.083984375 -1854.955932617 -1854.833740234 -1854.716186523 -1854.638305664 -1854.647949219 -1854.729858398 -1854.843017578 -1854.961669922 -1855.071777344 -1855.144775391 -1855.212402344 -1855.280273438 -1855.327026367 -1855.335815430 -1855.350219727 -1855.347290039 -1855.369873047 -1855.466796875 -1855.559936523 -1855.673339844 -1855.838745117 -1856.020751953
